ply
format ascii 1.0
element vertex 832
property float x
property float y
property float z
end_header
0.6687903785708067 -3.56507094583276 0.25918533620652756
1.2367137294785842 -3.5516474330299674 0.25881449690016295
1.2178613354782442 -3.512791305473664 0.26312770106721256
1.2355213911849454 -3.5376125327907983 0.27421000816087676
-3.392697591229248 -3.544833348396649 0.26104738025472407
-3.3566509200378887 -3.5015818550625806 0.2804509016645477
-3.336343006830004 -3.5102698083924277 0.2784314112142276
-1.7865833835568448 -3.4932708850569734 0.26384155663926095
1.1759420849761288 -3.4552921306914053 0.2609359697427166
-3.3131776643604334 -3.471695096792555 0.26542058974472715
1.1680164397990778 -3.439812182170453 0.25929706956769505
-3.289936651976292 -3.4567091859843027 0.25242830972085506
-0.5318764333200738 -2.5064195956649673 0.25533148364611
1.0802114669643308 -2.0778766356443397 0.25596020854948703
1.1018216951364495 -2.077920712650187 0.2576794525903631
1.1374813837208784 -2.087224203007147 0.2597940441024971
1.1589722288522337 -2.0879286098904553 0.25571612975538677
1.3741728080136317 -2.0612325341197906 0.2687111018475336
1.3940957133588456 -2.06730572037795 0.28064861478131975
1.2616833251963548 -1.7149117567007126 0.2621685563905715
1.2789414643281949 -1.7283216823941339 0.2629788674582646
-2.291571235762653 -1.2307631024750274 0.27117179766003324
-2.260285427606759 -1.235478617991046 0.2763773656307664
-2.2375729189616766 -1.2390142173989689 0.28254539617569885
-2.3047995453676244 -1.228648273674355 0.266395467669229
-2.250954501817561 -1.2299186519350669 0.27824046516349804
-4.7326799976821015 -0.3370549805622791 0.281168234927011
-4.68736252327966 -0.3228702949981941 0.27851624176473616
-4.775502715840314 -0.3149481139827943 0.26672932372103547
-4.730495077953097 -0.30121411573896384 0.27276977826548177
-4.780619521611004 -0.25175844560301175 0.28457616655154644
-4.775874327081573 -0.24257718181792076 0.26718645196952284
-4.7815019813353485 -0.07987721241441692 0.28566181719751194
-4.734012133335339 -0.07769066340620756 0.2828063785853732
-4.514594218410511 -0.04958985077634814 0.26972188563497956
1.5876945159814162 0.02939733610594386 0.2725257537198619
-4.559250820019983 -0.017298767900396417 0.2807308931431966
1.5982084612315517 0.044802622950311566 0.26743910646361974
-4.643794421046139 0.03186602538243899 0.2780149496521486
1.6076600411088715 0.07441293061704646 0.28098083157132386
1.618088483342448 0.0821947884804779 0.28981745401508874
1.6374533727256606 0.09999453133101421 0.2765560978215594
1.6410022673505056 0.09999946097975143 0.28429263441074565
-4.730101901154167 0.08342746697998282 0.266574419526578
1.6562066074603476 0.12493272303282965 0.272485965794444
1.6763802442416884 0.15159099474987214 0.2684126930499293
-4.782431488293566 0.10105035287588682 0.2868045196745825
-4.7777328631926155 0.11927783349731391 0.26947185626798714
-4.783639464812586 0.3362560598612714 0.28829000840589375
-4.250056618899269 0.45140960864603974 0.2717010679440351
-4.56468316880036 0.5989511458272545 0.2928777878370912
-3.992029677082651 0.7637597129303104 0.2846016622652244
-3.930486008526211 0.7425181763005206 0.2800029695361608
-4.018947067907298 0.784051858017728 0.2727475518701114
1.7708443556751756 0.8490052201845308 0.27620518880890055
1.6691464892965038 0.952511149577133 0.2915067776925699
1.68177017281232 0.9639299063164761 0.2834048106439792
1.59897397490851 0.9999382047138436 0.2673499150970477
1.614128086212625 1.0119317990562553 0.27487286853034487
1.6241148159584424 1.0356463082020604 0.28989711123097517
1.6343739074541388 1.0358018368705457 0.2899723287172211
-4.398708839283268 1.0226137438265759 0.2691614429970204
-3.7687917576986134 1.0601836452251951 0.2958607360341858
-3.7500768506946094 1.0497526454515673 0.2750943219695162
1.5169573954006148 1.277463262112094 0.2695687565117447
1.6206924009293053 1.2880681595563004 0.27103936175585325
1.5307695532373473 1.3078544766750813 0.2828898483038185
1.5331483051148134 1.3239254940809964 0.2733196852839293
1.6489731306800905 1.3287950184662682 0.2853416999625101
-1.491707930447623 1.3587899915644337 0.26873260469705784
1.5750640730985064 1.3861781878630428 0.2896421726874295
-1.5081842469740567 1.4851223883560445 0.27908938098474384
-1.5520420367371917 1.5291331528425258 0.28246569992214043
-1.530013967599616 1.5071291831586169 0.28077831069496745
-1.5324535755252338 1.6067270768551551 0.28900749652549673
-1.5128522033649674 1.6233349153409045 0.29050126082943317
-1.3731084824529023 1.6009897452707567 0.2895012829838587
-1.4693341701480467 1.641362300102051 0.26736194092641413
-1.4883586672487303 1.6945580637605084 0.28388871237334357
-1.4481700233537922 1.6987764847547988 0.2971391497863042
-1.4212778021353916 1.6991846140679419 0.29733638495732123
-0.4528571252260254 1.7066617247658817 0.2785282665374234
-0.4394110007007447 1.7068659087500746 0.2786268845239636
-1.477659054327698 1.7202190567582651 0.2859711471317351
-0.38654203026376666 1.7824929277943153 0.27156470643027153
-0.3658487756598728 1.782806857093614 0.2717164861415114
-0.38705687774559094 1.8127174271778597 0.28682699601127937
-0.3661865827392661 1.8130340066876605 0.2869799994166175
-0.34530916661080197 1.7868213169423874 0.28515946703654543
0.18355283327051974 1.8176415344545782 0.2776062486299085
0.2044231263728104 1.8179583519652007 0.2777593720613158
0.20910953603048887 1.8493544537206896 0.2932524613231594
0.1927122915670812 1.8766962414853736 0.29518486145047196
1.0121183891547187 1.9120304069051526 0.2826785334145204
1.0263253503070822 1.914163305328194 0.2896655131395273
0.13784301430831258 1.9254305163850611 0.271269213203076
1.038717068565163 1.9391002165629592 0.2778770229429606
0.13918735483676287 1.9886747117626051 0.2893336995208227
0.5882401333327236 2.0242381972133394 0.28764756827278776
-3.3658910374136832 2.004990150167293 0.29675315517535755
0.8959871638339731 2.057620485030294 0.28479320613936204
0.167971417155919 2.082384334259861 0.2960919891330422
0.9046397373020787 2.1223295285258237 0.28911754382163507
0.9012490261093629 2.1550961690573507 0.2912581140362302
0.882205699988694 2.1834563392929347 0.2783173524939251
0.8631323629921128 2.218060672580827 0.2803325303747253
0.8788210809357879 2.2182988208142937 0.2804475637376684
0.9100238782803833 2.222982794188221 0.29579282396860296
1.5405950836080353 2.2632339445364975 0.28745668660608537
1.5751313259634818 2.298651666722005 0.28986484097142445
-0.7131156645945146 -3.7637116630589675 0.2956877307286098
-2.058768357017577 -3.711805612625171 0.3055296026258524
-0.7455475578408115 -3.6974038979046124 0.28829681254200695
-0.7395967029644521 -3.6651681177696673 0.2847430429134894
-0.7194047571996911 -3.658588117488746 0.2840519539166901
1.1304038305161106 -3.6353333810501445 0.29361870127921985
-1.933343034725052 -3.6482917617133985 0.2807181418915855
-0.7759681214663811 -3.6343014352379504 0.2812640559233631
-0.7525345575940688 -3.6341375339298247 0.2812883269029632
0.6878028030459602 -3.6189007085118705 0.28658013174302854
1.1099467100651965 -3.613376635752699 0.28525748522832844
-1.9980424484437231 -3.6113382560459684 0.29369846674470945
-0.5670972019075647 -3.608159523656842 0.27875105253418386
-1.9705024270661364 -3.5767224343632904 0.2896344735070329
1.073771289812037 -3.564747144563306 0.29812926647841226
-3.3793005655493387 -3.5532262636971277 0.28796544973684235
-2.058981345582188 -3.556096304957318 0.29534741909363266
-2.0230885040184012 -3.545075226711 0.2940594625855964
-1.8800036218215495 -3.561821018030619 0.2796523873365916
1.2094913708627697 -3.5129122342871897 0.30034510947289383
1.230910317331075 -3.5353819327037534 0.286505262901755
-3.3990867697616562 -3.5450131047369746 0.28431274578676113
-2.040245454485648 -3.5236546003619775 0.29139156500949887
-3.3238782332488825 -3.501268115517174 0.3047478817488901
1.1845242329053092 -3.4676356921621707 0.2865853255084874
-3.282959742871583 -3.466014810089396 0.29517379574911806
-3.2799043392559852 -3.4659287718426466 0.28404756505592393
1.1684737715454818 -3.45077554539707 0.2964754183245706
-3.299168532305493 -3.456968896735579 0.2860447369532566
-3.260818183748863 -3.440192425594703 0.28226953182722175
1.1300617192698978 -3.3854229183057623 0.3034304957862345
1.413537599173528 -2.074342102396173 0.288282769844149
1.4249618438302438 -2.0748467085702753 0.2998524484452556
1.4602034926669427 -2.07857479567784 0.3065053142987497
1.395123550756565 -2.069588242135641 0.2860940054126104
1.4259288861628554 -2.067231559499482 0.3013666627754668
-2.420391588220312 -1.7295777392288856 0.31550651993889745
-2.2877197011137493 -1.233141708841532 0.310093003543234
-2.2639621671662242 -1.2361445799002893 0.30174092934572855
-4.6936830938092795 -0.004567742937359398 0.2975866944367356
-4.648247515730882 -0.0032530522926346173 0.2946637968293485
1.5969701029228716 0.05090300755120447 0.30542229512679536
1.603122814907234 0.07293447855540047 0.31961736881714425
1.6200753076930223 0.08176695695468994 0.3104140054685709
1.653247650030124 0.13143453985265263 0.30238479847493405
1.6705462899456214 0.15703624089832013 0.29471714381141895
-3.9400306654473947 0.7518128730268157 0.31464000073077353
1.752154771087177 0.8308627257237264 0.3110873431902212
1.7651776353091952 0.834547083323846 0.30263439101210515
1.755425630910318 0.845973836885036 0.2982408675943823
1.6545157919931923 0.9334271800115814 0.3169518935802791
1.581944926540611 0.9730842539220694 0.32097543135449697
1.6815486435735891 0.9692611403752165 0.30255460606175544
1.6148112980035108 1.0064079095373695 0.3059969846139389
1.7074238367708032 1.0012465399201707 0.31543432622724576
-3.775998913981194 1.05998072334655 0.3221037686894717
-3.7457153492841324 1.0389177749410676 0.30659388503565294
1.5827422923453491 1.1959522242356633 0.31520280644782966
1.6037358597910596 1.2668104819785955 0.3223688250617945
1.6513084999971162 1.3174066662405497 0.31150035769681955
1.6634533733767878 1.3512965387182103 0.29828707734174886
1.6798294786213976 1.3621224570724781 0.313995792515999
1.6185031713167197 1.4507230696225204 0.3066615012119525
-1.3238634454064264 1.5428211725300363 0.320849988690862
1.699130583170962 1.5801704790871904 0.31243113385239796
-1.5163307655873233 1.6023074030862838 0.3009834140521252
-1.92643300910582 1.6276195506626248 0.3253794124056852
-1.5360444711238697 1.6545469226505232 0.3178399726246896
-1.5130713559188107 1.6286115239138363 0.30945560189637167
-1.3819880497089534 1.6323608589433027 0.3167356559314307
-1.5190147149566484 1.6757507537123628 0.30735284009835995
-1.4125006388313583 1.6809453439399913 0.32098047881542835
-1.3990193431387423 1.6775714292147066 0.3082329136992843
-1.5291461880520525 1.7047652655150964 0.3224564968917714
-1.443911400283964 1.7243704757830576 0.29928346459623284
-1.4305030073763656 1.7282130261695825 0.3124466277793493
-0.4144403130486159 1.7894748606967166 0.29794461472833145
-0.3946069943774856 1.8439606252418341 0.3023484177622475
-0.401781448655629 1.847619000077607 0.3158200974746521
-0.37380683174315277 1.8719001400925859 0.3046719163915031
0.22079383591955937 1.8828225382465857 0.31585460471081317
-3.2574526532050854 1.8932533078535234 0.31580615268644013
-3.2987144419257843 1.9224468502623824 0.3180962257074156
0.13458849068613865 1.9647834482161481 0.30824013991046095
1.0219863158917848 1.9762966539772087 0.307741265121416
-3.325399210693435 1.947921827286762 0.30635023193106126
0.25628748818407204 1.998330662946289 0.31847850642640113
0.5792116874398039 2.0032307206368705 0.32084712560707557
0.2767065388044354 2.0294515803207682 0.32104968002651246
0.5879926403610941 2.030198783028599 0.30905814544148097
0.17778187983850285 2.05876147973368 0.322745613021712
0.8958205829402037 2.061630858999803 0.29919877768132536
0.9106064276605241 2.0658683111747544 0.31371402472683996
1.0471014407339378 2.0411415573143374 0.32670050629220226
0.6113958327602566 2.065340973104121 0.32592606712975264
0.9853674907606824 2.0670027397026978 0.31426239953020074
-3.408846627373814 2.0691478732283404 0.30153151644358583
0.9753238102156039 2.0986857994053425 0.3165571205698393
0.9044700393879697 2.1264171298754952 0.30380054479225654
0.9010776458420302 2.1592230903790792 0.3060821568025714
1.4855958621884988 2.172222122142837 0.3251947658056037
0.9098492357993471 2.227190947913307 0.3109080191086438
1.5139522878900076 2.234251996884903 0.30778080303435684
0.9187616907609275 2.297280511266907 0.3158838241474748
0.9235347238939731 2.329052822317732 0.30287703867112775
1.09569806361151 -3.6115746726478877 0.3339815107860776
1.0818360077893578 -3.5824486457677915 0.3215538901978795
0.6592699716371884 -3.5513832616501277 0.30828895858288163
1.0802097461534654 -3.5710864127331083 0.3116043363441896
1.209503358943725 -3.516505467199825 0.3131339857761451
1.2015920801913444 -3.493105635954853 0.3221636292555058
1.1770774190219302 -3.459992196259771 0.3294991916097582
-3.2890707905474366 -3.466186649735201 0.3174261388678943
1.1608786264522641 -3.4306658680973383 0.31352265450921124
1.1454812517091821 -3.4138048738814666 0.3382282303594146
1.5064431197238113 -2.1063491649035684 0.33484365502238167
1.5277280562345998 -2.1140491375415422 0.33076387648391237
1.6510742723696339 -2.1202339924896343 0.3402045016467542
1.4714513266070524 -2.0885062346650693 0.3199044505540093
1.4888497343271163 -2.093446717899567 0.317385020809443
-2.414747572986646 -1.7283914322113092 0.3251792461174501
-2.3763000353763304 -1.7197771143988532 0.3337497376205743
-2.357411633538323 -1.7166463020774965 0.3417908578745997
-2.292356984760839 -1.2338939412806804 0.34021479561378315
-2.270421107327431 -1.2363855094553597 0.3265205376111485
-2.330775469060462 -1.227957960247228 0.33072785836843666
1.5941543757860401 0.05332344112675136 0.3345450827111983
1.6065619111890417 0.07293920148475763 0.3271149486026993
1.6168791970156478 0.07295372829462199 0.34960756997703596
-3.887205832544635 0.7168363732612424 0.3343970914207431
-3.862729433690331 0.7069490368641727 0.34745098487145715
1.7497373157179927 0.8006463606619596 0.34577129463051703
1.75981320633884 0.7992116562381855 0.3444772550078613
1.753213572516542 0.8157576316172805 0.33337296682951384
1.7636959849658063 0.8248174941035085 0.32731161258729236
-4.099689731190132 0.8410778885207686 0.335467534730216
-4.162822031761507 0.8853178798565489 0.32666808814976506
1.6660116704463541 0.949107004087667 0.32793229798622203
1.6784733493233894 0.965906946282163 0.33915806662642245
1.5935637400214018 0.9939136775760915 0.3467064188532729
1.6065423451754794 1.0051188501380184 0.3340914576171103
1.740020253541529 1.019745387944676 0.33180937786304787
1.7398511166775696 1.023819805616659 0.34644464937782715
-3.835222071119985 1.1038981518042148 0.34065125544058716
1.5700447761163234 1.185571701189424 0.3344961090859042
1.58262024020599 1.1988913134738242 0.3257601624014068
1.6429158728260191 1.3037439913230398 0.32626841791858996
1.5881594503438698 1.4215464248735878 0.348845616968693
-1.4510064632983892 1.5443003813075709 0.33215431497841635
-1.8821648165247533 1.5636376324437895 0.34355553826263685
-1.472444223492123 1.566419485436407 0.33422828472099725
-1.4404459976662687 1.5669049466894822 0.3344629909990257
-1.4191644258030738 1.5789847097180905 0.3357878022636186
-1.3590175787019745 1.5916539269027135 0.33739768916485485
-1.3997018607038079 1.614550014928702 0.3394365809866466
-1.926415626756117 1.6416562690484258 0.3328676357269606
-1.5001747002485688 1.6340874512092494 0.3285059828627288
-1.4216270515400886 1.6387995007419722 0.3417193984319734
-1.3953226550031703 1.6374383911777237 0.3355936597098184
-1.369018498845804 1.6360775180529459 0.329467921928624
-1.9464371472151816 1.6589673646688754 0.35305534486480206
-1.49931249053114 1.6832063847666576 0.3331902270080907
-1.472646746363881 1.6836109800393466 0.33338584522342357
-1.4259818132845217 1.6843190208327934 0.3337281622609167
-1.390725131477237 1.6603012660280483 0.3316477728438195
-1.448619213314084 1.7095959996836239 0.3360027874700058
-1.471483328854029 1.7348694428305935 0.33827570644044536
-0.40193777018307403 1.8513838044057767 0.32934314526480113
0.20146608940295574 1.8643070024775044 0.3472934028125205
0.18278475070608124 1.9167005649325557 0.33853977118868134
0.1343455058064595 1.9706357283989229 0.3292616595038067
0.25612400022651893 2.0022675775427956 0.3326202513969465
0.5790481994822506 2.007167635233378 0.33498887057762095
0.18748479588281802 2.0360500895451166 0.34894509752867403
0.2765415640139302 2.033425224892058 0.3353233978561871
0.9252255722655927 2.0741161364364826 0.3426348135739069
1.059795511262231 2.076157917256502 0.34362188755361284
0.18247688640319326 2.096782988788937 0.3470998244768753
0.6201142752454136 2.105449056057732 0.3575814749779499
0.91469623658999 2.1038426262640737 0.33792729025516255
0.9448840703664421 2.104300543462779 0.3381487049737025
0.9750716637633414 2.104758697100955 0.33837012063320304
1.0580038383720574 2.1080424642861564 0.34625012621772405
0.17234637379875284 2.129624044842523 0.34982547928078056
0.6296371681224482 2.13451768298751 0.3458375492971676
0.6450471596757713 2.1306611992123248 0.33126634543229905
0.904045791714092 2.1366364904550172 0.34050816765362746
0.965091454658674 2.1355175147373338 0.3336138570027694
1.4526929853367931 2.144961465376297 0.3445324047048688
0.6543787714605676 2.1678683453591185 0.348748411643363
1.4854244819211664 2.1763490434645645 0.3400188085719449
0.1825324456430671 2.189515066398732 0.3330507867750498
1.487470616013319 2.205147267741218 0.32765600256573474
0.9062846465507739 2.2663663617914755 0.32860378406718627
1.091618396718771 -3.610648404553242 0.35093237485525175
1.1080480048379995 -3.6165049172910724 0.3518473406211257
0.6735601788350565 -3.587064968406705 0.3579341778008443
1.0839167642722913 -3.595309113993239 0.35719935511597406
0.6667489888404333 -3.569469630466087 0.35249699783596633
1.0636897973135961 -3.5702189922133734 0.3450947905687209
1.1685907870709804 -3.45382896417728 0.3443498291107884
1.1526349413211239 -3.4348508832017215 0.3550307201946571
1.1378011311808507 -3.4085767593502725 0.3527276683396489
1.1226621561114378 -3.387510202267899 0.3606233370260832
1.6464428373530111 -2.1634690836487516 0.3560703089067831
1.6668791353204313 -2.162378889770083 0.35900963298591576
1.6934247350346479 -2.169571382258628 0.362825130365227
1.7444675009337136 -2.165844250460837 0.370967408215934
1.5647165749605736 -2.133503432474203 0.34397883501029225
1.6028547698987425 -2.1535290396424314 0.35771445172290406
1.6794990486573202 -2.1467407980907085 0.3524654692621607
1.7095845995745984 -2.149213001876849 0.35797376398811565
1.73329378164541 -2.1403284093039363 0.3662398571568072
1.5273500313099972 -2.110401662226755 0.36547127497603576
1.7099593105642255 -2.123202181470713 0.3599766680613586
1.7317537040668491 -2.113218222375193 0.3662454694782235
1.759039370578397 -2.106923769667648 0.3683435426912802
1.4974290709490823 -2.097019346688959 0.3465399516988886
1.739393708066203 -2.0779855651756733 0.36494832741451827
1.7494224397943634 -2.0878422117718416 0.36867041065728484
1.7374813082426515 -2.055507923373727 0.36583199656038906
1.7511764024150989 -2.0623181560631547 0.3697232643993831
1.74183312877242 -2.019936260546001 0.36549140190659246
1.7541109474880725 -2.0269678677386063 0.3705562784203478
1.743328508942568 -1.986950078473647 0.3683950557810137
1.7588896020661071 -1.9904474344568273 0.36818277157727414
1.7449446518159157 -1.9637237199280322 0.36684601729073696
1.7105376235923566 -1.9285056602227555 0.3623261480000059
1.7274508894812899 -1.931266390736206 0.3656832755017308
-2.374893247530495 -1.7159297447735693 0.3676362637788407
-2.3487447807973747 -1.7172439680147975 0.3581173387391186
1.7530483638074612 -1.300601420109321 0.37024360707974924
1.7406098184854402 -1.2815403857669656 0.3712542442736707
1.7581758102680958 -1.2791952258855508 0.37072174984691986
1.7605915001906913 -1.249509680344914 0.369050119959729
-2.2913393198024288 -1.2344870583131244 0.34974468785056106
-2.268602122316262 -1.2382292155168477 0.36023678758008115
-2.2452652480203676 -1.2415399726873413 0.35971986052547766
1.6093361507614683 0.07209897097863172 0.357267826662042
1.621546821593004 0.07999147441371712 0.3701496634324617
1.6299963780638607 0.10285728932601601 0.3715654476538103
1.649393105918199 0.10522756007688949 0.36379110435952744
1.6710580123149084 0.15302007430512576 0.3744079346536321
-3.923361917211013 0.7317021030367326 0.3600273540905609
-3.897202086119262 0.7259476426130302 0.37068035913306
1.74561287023245 0.7678923205126524 0.37017975154189353
1.7561939528447228 0.7776399855306295 0.36534778695861403
1.7613351087396045 0.791690375590264 0.35782749056241897
1.6031736224020416 1.0034524501900226 0.3804989074461027
1.6161036627012741 1.0174206795218093 0.37780506126183744
1.630909649980697 1.0426897537323534 0.36709413784163325
-3.8462212415362713 1.1035886644408996 0.38070289712482175
-3.896861512840717 1.1439276409757186 0.3642638125486607
1.5711741957543928 1.2104816187141927 0.367909469076236
1.5821321490148308 1.2106479090038522 0.367989825388625
1.6258357482368841 1.2777320803903243 0.36053584416577933
1.6789589476984006 1.553616049204077 0.3747417102254645
1.7144428940558887 1.618212263603014 0.36993624016248916
-1.955385719452673 1.6400871235435426 0.37150346757545577
-1.9598087117001646 1.6623136920745505 0.36569904287370525
1.7869300138956634 1.7402281763004777 0.3829873172000116
1.7915978280380014 1.765980311669337 0.38568067374526904
0.8078418990811049 1.9050308264769897 0.36790949309522647
0.7253540123071643 1.9326021075409814 0.370050198833586
0.7753567508427841 1.9333609990413667 0.3704169740393399
0.7967865063853736 1.9336860000920677 0.3705741115019403
0.839646013597378 1.934336478603336 0.37088850727070655
0.6340018409614709 1.9600388823355062 0.3721259348132877
0.6556227906532032 1.960366888336942 0.37228446826964845
0.6772437384409012 1.9606951323391997 0.3724431217520783
0.720485637889472 1.9613511439338474 0.3727603078733725
0.7493136496472407 1.961788565259228 0.37297172578272175
0.7637277737793139 1.962007395907116 0.3730774946886988
0.1993982502075236 1.9813828151954558 0.3647777997936306
0.22840961048118796 1.9837750010350164 0.3719983861531047
0.6284295318595444 1.989844924905907 0.37493246553709497
-3.383494930282966 1.9937931802316198 0.36557696669498685
0.6152537637799169 2.01953566515151 0.37768326828713134
-3.404187409233864 2.0264803534056064 0.37570958249338016
0.187319819058066 2.0400239729336764 0.3632186969672722
0.6019829323542865 2.0502922397791545 0.38053504822262024
1.0316263097255363 2.0568116188894763 0.3836863512100532
0.2070201690811933 2.075257130053026 0.38058725032013224
0.6108962669176168 2.0773723348988744 0.36914278248054067
1.0594624667107577 2.0841789045893524 0.3724330313933036
0.6425869552651792 2.1098408928065773 0.37228957019846093
0.9068132441436392 2.1118250668739424 0.3669559902612198
1.0652986513077867 2.1142297223320625 0.3681184050466166
1.3597125971891368 2.116671573303683 0.3630063583115901
-3.486066042544773 2.092517656198016 0.38907077421473485
-3.4555856976150383 2.0929803661955058 0.38929437018469765
0.20240244519159 2.1403056383552466 0.38675669649255473
0.6523277885082432 2.138952317327692 0.3606882472143951
0.9036214268041491 2.1468556116407065 0.3772157897592342
1.0612164698262512 2.1465200220145553 0.3685821654601261
0.9157787912246205 2.1759645290337044 0.36549121635516485
1.0967492016314 -3.6096437753660817 0.3678420284640255
1.0897612816770612 -3.5924803401193817 0.38613919153042453
1.0738730924286695 -3.564406745091472 0.3857307470012148
1.0590165804699343 -3.536722924249954 0.3811853965663028
1.1652215131849384 -3.4566977926216635 0.38777636851206715
1.1490142489420287 -3.4337698436006256 0.3760678461716452
1.1616195070612376 -3.4393566845857624 0.3962768939665775
1.137816013900394 -3.413070045913211 0.36871842188900783
1.1160348121616752 -3.377228251495967 0.3701157883745344
1.6465067695138382 -2.171955831904735 0.3883369009600214
1.7472973591892127 -2.1658065264114192 0.3770384303702175
1.744135626459464 -2.156841980693779 0.3741838279094954
1.752673549845758 -2.0992711392694092 0.37519632941880104
1.750935315089295 -2.0678591203619376 0.37702135266412123
1.7243463449977459 -2.062663892912247 0.37315713711195936
1.7567251463886546 -2.0512389613540045 0.37626388139882844
1.7664782068600013 -2.012189329062977 0.3764641918286481
1.7638053263622981 -1.9927242087098778 0.3775968842068878
1.7799054843382267 -1.9937756541869316 0.3795361072144806
1.7192152991794698 -1.9278343365800221 0.3742153229253216
1.755927236415698 -1.9349373574438844 0.3804937578758922
-2.3733393264823954 -1.7152559683706987 0.3808681555557658
-2.3194894517349374 -1.712096811224965 0.3787824322561199
-2.3349200548335207 -1.707092746453622 0.38198836990282575
-2.286576296705289 -1.7066754143288632 0.3911651864379962
-2.2578588514382925 -1.7094217394090412 0.38490902037116626
1.7641942707522626 -1.2937680170062629 0.37783662685616437
1.7803822018073379 -1.3068009387328612 0.37838847370360235
1.766372479038291 -1.2606882971101068 0.3764270312734957
1.795101165090635 -1.26472454808679 0.38234892955464056
-2.3411674890456484 -1.2369078002261085 0.39891270553240427
-2.3315355476650415 -1.2378483270035856 0.3903113881394692
-2.301644707465572 -1.2347769976495429 0.38727028535714153
-2.285311306238995 -1.229791981240158 0.3806541741187729
1.6121633391848553 0.05635213782715742 0.3909083182577369
1.6188941581269456 0.07732758758585123 0.3959335515434883
1.635045424448175 0.09495298884013303 0.3962581979523182
1.6483904654765325 0.11958480940315552 0.3827742277401759
1.6589868218921906 0.12751091472085863 0.3921895997911585
1.7518629649671318 0.7714433360260882 0.38902817948533797
1.7620730473244228 0.764815608026004 0.40149463543567715
-4.183168201747536 0.900054269891905 0.40056488521876127
1.566982454626847 0.9686792878432795 0.402865494884726
1.5815878514234087 0.976533664067363 0.39804183634746026
1.6209684540885148 1.021546627936343 0.3923885858087545
1.7364999261139666 1.0287028177384216 0.41263303989292743
-3.8815213132123354 1.1253869305319923 0.4106895373459188
-3.8498878694290646 1.1034854205472049 0.3940534442038655
1.5864033193848577 1.2129145108384265 0.4039054807909811
1.5079526056964143 1.2447787367997207 0.40261524196312176
1.5975861272646288 1.4151556310373377 0.39261103503273004
1.626336717651079 1.4521425049136936 0.3860034954689201
1.676859416060842 1.5490193472075078 0.3975114261797948
1.6980697275124437 1.6057186403614885 0.4042001307075069
1.7269572324523856 1.6252724720735612 0.394692877733083
1.7347075367608 1.6690929456691206 0.38749224041817454
-1.9733274397907488 1.6692070354857085 0.39108361627365706
-1.9536383589036443 1.673054963456689 0.4039698998886539
-0.8095954711459123 1.6868654139277146 0.39961949094596766
-1.9601854400668537 1.6976832104383617 0.40688857472223533
-0.8201553851827275 1.7131928284958373 0.40882741096687697
1.7999659196049438 1.747582897369125 0.40877596422346085
1.012832492582751 1.915741530646678 0.39669817597604173
1.0411505718585636 1.9161711763865432 0.3969059118302055
0.8536142355325835 1.9422171172060276 0.3985216712029891
1.0036226934881356 1.9444933168586689 0.3996219950617938
1.039338852140459 1.9450351429869868 0.3998840106378083
0.8787184590153294 1.9714894081738359 0.4016972611161988
0.8939792492559442 2.0277043710008344 0.39387063870972144
0.9231725381217097 2.03208687569727 0.4082277131257628
1.0334237071560033 2.0298201471765234 0.3948934510424287
1.070119679662007 2.03037695599465 0.39516261223617644
0.9277541927724036 2.0592117258057847 0.3971995005602194
0.9572199733245084 2.063635124343789 0.4116904390297385
1.1055377794536176 2.061909285642246 0.3985035368745949
0.954463861508283 2.0906117867558285 0.4004764508723271
0.9842018973705626 2.0950758383485564 0.41510137190986474
1.074081611332103 2.0924267297490253 0.40135385004251367
1.178913514466462 2.090004458976316 0.387716002984682
1.238625709816628 2.1229362323859693 0.3912047359313816
-3.4864056786874382 2.100693094928605 0.4184368963055112
-3.4709954487888095 2.0968366135312193 0.40386557310860555
1.223495962301199 2.1557997664320396 0.3942463031486884
1.2387361367352072 2.1560308830217387 0.3943581003161735
-3.5164073564041294 2.1293587404213525 0.4071080305172745
-3.547320315026628 2.1974541022992504 0.41426310442403896
-3.726234922639352 2.3349857079299356 0.412791391737857
1.1143071537339237 -3.6365035682001263 0.42318136719639127
1.0977026279579685 -3.6100769740269696 0.41011302500723196
1.0742359011054952 -3.5693136943917603 0.4235557696298326
1.0588034318929689 -3.5223288621119115 0.4162969114438309
1.0581618172889191 -3.4990970734964284 0.4199464424889148
1.185727253420747 -3.4831241334037166 0.41204525183626595
1.2019804706669563 -3.5061873527959637 0.42423593736506665
1.1857146339403526 -3.4776351844623257 0.41101357680696704
1.1655036919839035 -3.448803425173959 0.4133453928665498
1.4942360209077687 -2.4969462856947304 0.4104047438493697
1.706261017970512 -2.191740435611121 0.4218903336615897
1.7214622175578242 -2.198530809049474 0.43109266600664875
1.6716372595900164 -2.181359831209705 0.40995920885187165
1.4455042620447252 -2.0707466092709765 0.43003626229597663
1.4521459816294233 -2.068554108369953 0.430222713131322
-2.721526000571283 -1.4516224302870933 0.4144509135488326
-2.757668522819913 -1.4378824441975846 0.4211479568526977
1.6304352287174184 0.08214531139137349 0.4307079472583655
1.6360409521039843 0.09407423182230268 0.4224802205113035
1.7687367460280083 0.7485675727309145 0.43148548593313407
1.7678031538025987 0.7668746591285396 0.4248967394431355
-4.222614360323125 0.923198697509265 0.41917503621223423
1.5837631771115803 0.9856764955795223 0.41459604389639054
-4.298647256610135 0.9703037679455717 0.44219219271008736
-3.7580087817933525 1.0166568252433923 0.446119493553249
-3.7814480208496564 1.03791230646292 0.43670777124154186
-3.8310394429513006 1.0812240210468602 0.4239724033142422
1.592480078182509 1.2255098848423762 0.4208572601843637
-1.8849112846500164 1.5196702643875943 0.4208762887203142
-1.8845266416246758 1.5423333827901662 0.42387439221529566
-1.9031355139637707 1.5681170609520227 0.4389701846206327
-1.9213118310897412 1.6073630055297283 0.4203007844499293
-1.947011798413016 1.6306816887214446 0.42315024347480396
-0.8025364059462957 1.6515387513850233 0.44407741527358724
-0.8127722951001409 1.6726785163080942 0.43464577718842035
-0.8266136929911296 1.7430928688347571 0.42693606704357057
-3.463946884505827 2.0718349327867704 0.42942813278209035
-3.57781835776819 2.165806399218323 0.42519950265622836
-3.5622850742182823 2.1660420753258105 0.4253134203446928
-3.7264167391445926 2.3393647956757793 0.42852063084418995
1.122284542572919 -3.661607053656337 0.42761676305235385
1.057768051955992 -3.566901046353509 0.451546815907046
1.0955355692700641 -3.5470126110989986 0.45575463583727926
1.0363040076059042 -3.523036527004159 0.4429024988542821
1.061400346181312 -3.529125128105524 0.4282168238365117
1.0931252372399833 -3.530491846640908 0.441303119355399
1.114712834839467 -3.5224886120720003 0.4429837420497163
1.1460709751694034 -3.5278673372221556 0.44906089813859695
1.1758462779845085 -3.518909794354978 0.4503337215330502
1.2018339917165826 -3.5218797361049248 0.4430739660570105
1.0340445922825612 -3.501045166630373 0.43858919237365596
1.0551611787121709 -3.504061919844446 0.4313705014213229
1.072025139873874 -3.5094394816992605 0.4324427073892125
1.1779863515964353 -3.4692290780123223 0.43270281016334966
1.71105301195451 -2.188180150262176 0.4438754387164766
1.728236355744302 -2.1998973472305563 0.4407483438161545
1.702412249723161 -2.169058479276509 0.4449377048700273
1.7237404143244004 -2.1696140974351 0.45345053018896936
1.6864062450189838 -2.148567163779809 0.4344665326417732
1.706082751870013 -2.1456803319256093 0.4503276362720448
1.734964754347507 -2.149485420082385 0.456729854083009
1.443986640078644 -2.071896195374312 0.44362646284924323
1.4556892172183318 -2.073041591528554 0.4442239114866007
1.4904033803912375 -2.087448260974572 0.4509398288509954
1.448004050899384 -2.068272024674828 0.4430460833530743
-2.766761119683657 -1.533114939301292 0.45543317031034536
-2.730581235707912 -1.523034334384245 0.44830513570117425
1.7436661859405895 -1.2170478177781132 0.4617266073796999
1.7224375539855346 -1.1209500989597225 0.464220544277394
1.7295462582347274 -1.0795658489973965 0.464668803146827
1.7312413787928234 -1.0612960365623034 0.46220128198984545
1.7221451818386793 -1.0109511966203324 0.4642715892099655
1.7146580252083439 -0.8730301817417673 0.4663472145887324
1.71065206806059 -0.840040945825735 0.4640092392762398
1.711725268476458 -0.8117508332024349 0.4658059428664411
1.7016451493025684 -0.7906879762099189 0.4608215624642629
1.7149643605083538 -0.6591316037931588 0.466908675416871
1.6041643156755239 0.06768569244688871 0.4634268904755028
1.6237740711711584 0.07841852581585229 0.46105198547405735
1.627571217549366 0.09208596223896337 0.4518003910341297
1.649613725044442 0.10910792210179543 0.44885673716236196
1.656660826519513 0.1246444482451754 0.44908717247411867
1.6795337742081917 0.1580961758710464 0.45386748189301024
1.775193047764959 0.7485764490192783 0.445560989957898
1.7778025413978 0.7726840552648107 0.4604975347032663
-3.7131148635284164 0.9758426032664385 0.4645877022671761
-3.6871917543424177 0.9685852255096499 0.4610029986547749
-3.665778549602329 0.9618676653021525 0.470052668477517
-3.735590849069599 0.99624887381995 0.4554592458519356
1.507683471589293 1.0627058628799004 0.4447611905299964
1.5307139541868535 1.0886611629249698 0.45851106159099553
1.5721408140828674 1.1724631855976837 0.4626819540003295
1.5904854632394045 1.2180237802094067 0.45003678107554784
-1.8976186922068277 1.553971467059591 0.4662731951347859
-1.92184556724411 1.5939521818780904 0.45425628880488444
-1.9090463476231931 1.5941462702615399 0.45435021870956577
-1.9345843478433202 1.6448338857482263 0.47337170292483854
-0.8152016370517989 1.6785086074734148 0.4556899024899079
1.0666878374594613 -3.571655946060014 0.46870018738907454
1.0755916147971818 -3.5715938814990205 0.4687094250498184
1.111742903146023 -3.565826315097958 0.4676229516133798
1.183623009843907 -3.548779789207874 0.4643257360146396
1.214450776905481 -3.5485641403502735 0.4643576495861465
1.0450393777044438 -3.530045932004094 0.46807406428011844
1.1490321173894318 -3.537991975183542 0.462042103805876
1.178355158114461 -3.535681674550476 0.46691487529324144
1.1928360480292604 -3.538870788670267 0.46630428703683263
1.026067411319865 -3.499104216214186 0.4771141176457987
1.1515036654727262 -3.504236312120046 0.4862930966801112
1.1719434255299235 -3.5117356930227546 0.4802081622500577
1.650460738898646 -2.1672436207880597 0.48702696094966064
1.7049702797604747 -2.1663149782053086 0.49136849324054355
1.5946802680407375 -2.1422334248364203 0.4738337516368011
1.6146923220941882 -2.15068117201998 0.48099572714189426
1.7031899390040743 -2.1479171159248818 0.48512330843744156
1.7316616134487386 -2.1394013580764173 0.4790601306370229
1.7606786687930585 -2.1463350208628365 0.4755779326505844
1.5159959864606545 -2.103984725065441 0.47419880000751763
1.5413365108651105 -2.114662759308339 0.47200601108705437
1.4470635315298253 -2.07051187317074 0.47467681539962187
1.4536904971158262 -2.076241009458247 0.4776908392279462
1.4903820854112733 -2.094334030486956 0.47170380335365625
1.3998608149041687 -2.05316070752251 0.4672836123438208
1.4249201033787005 -2.0650351742929662 0.4841957670640167
-2.8617163526518192 -1.5456240870100313 0.4913901795983584
-2.8328477566115104 -1.5445800079363101 0.47697786654803975
1.7601339015522153 -1.2692115455089663 0.4696968497192283
1.7598531698379702 -1.2390299248939582 0.4712314449418672
1.777214632240815 -1.2455422358058295 0.47588646278555086
1.741266390114153 -1.2024738721391492 0.46672021310535183
1.7557286942120534 -1.2121465595244387 0.47112706511923474
1.780839560733431 -1.2121489352558572 0.48513142601550113
1.7526512344663314 -1.1857080276394076 0.4723759781209803
1.7358839019838739 -1.1459866780018273 0.4734946583381365
1.755180229329232 -1.1512781313112996 0.4767387311218336
1.789993796621697 -1.1565715568047719 0.4856106310372635
1.7285195236324675 -1.1263714171821793 0.4694745645752087
1.756503871474426 -1.1257892584950295 0.47776758917962014
1.7731658580788312 -1.1323292205180808 0.48188314124947795
1.7374985897175685 -1.0917718390020557 0.4733824805739397
1.74883157884572 -1.0877019873986211 0.47402248809682895
1.7339830866290815 -1.0651802185094166 0.4707549708151009
1.7468655808527098 -1.0596273609884723 0.47404582170634557
1.7399676583327641 -1.030729645368496 0.4748689638142298
1.7496241864093318 -1.0303552125700997 0.47141622659900084
1.7326732650544687 -1.0002181021218792 0.47157416619973797
1.7457809221735836 -1.003357515297984 0.46873688035703565
1.7288525356648223 -0.9753639003109535 0.47384162659280454
1.730541923621566 -0.9392209325756697 0.4747101324510228
1.728085933976993 -0.9161621622450247 0.4777727738368044
1.7450978093100977 -0.9092923860882082 0.47918355317399514
1.7037983066697884 -0.8837960160134787 0.4728263072137535
1.7240788843404717 -0.8849655783100197 0.4739633904739428
1.74443845258366 -0.8918392528798479 0.4800068035950208
1.7711832803667182 -0.8933985894748314 0.489014928700204
1.7328849868009037 -0.84966452957412 0.47712000841901764
1.7499618835678927 -0.8529918461112173 0.48124252072064294
1.7031996817377852 -0.8166313676667113 0.4682074713840731
1.7255450214492725 -0.8189656121996256 0.4732984028726562
1.7519183510007907 -0.8220808430442244 0.48413270690175264
1.7723443106689742 -0.836881176557298 0.48755385665534234
1.7220056010649163 -0.7924791714940636 0.4750643586028828
1.7669024199168777 -0.8045688249012414 0.49235711317875847
1.7705631804733375 -0.7962120384084371 0.49575123513160196
1.7492936444837766 -0.7550337389830072 0.479153011152457
1.7576647984293192 -0.7352938885220945 0.4851062038297817
1.7215365646129082 -0.710105226079885 0.4736701012387922
1.7399320929216129 -0.7012333604760922 0.47330052959860125
1.7302333064356035 -0.6619318006792392 0.4749117327294981
1.7474675121593375 -0.6720045985862882 0.47928926587649384
1.7204362333984207 -0.6460768498644691 0.4755403375595679
1.7254957830381674 -0.6145233841697764 0.4807716877320233
1.7015290150995679 -0.5861732284176815 0.49451072389616474
1.7266991612278828 -0.5849021165632152 0.49205722680581215
1.7373821749121212 -0.5846766854709321 0.487491427782045
1.6421678792564767 -0.15332038391541314 0.4907608170983803
1.6417185729378971 -0.1468861424363188 0.4992682260830456
1.6595955961625564 -0.1361223882651006 0.48985579730156087
1.6757717497012452 -0.12904208351832946 0.49271383099934773
1.6032677672202706 0.05740405832847206 0.48574833888746294
1.609167330708582 0.06769271418858813 0.4743340434566051
1.619275056283747 0.08261739844139093 0.49300288737664166
1.631705105109654 0.10601004090797606 0.4813327087445672
1.644041734915577 0.11411887866367909 0.49480751246515714
1.7804204418393355 0.7661838930992235 0.4829049962528442
1.7868769800175572 0.7661930097662084 0.49698050097164015
-4.347718731781976 0.9779916576359013 0.49225871601351395
-4.622077031609957 1.179494720354506 0.4946585783071883
-1.8852282579112414 1.5592323831712058 0.48457608677601005
-1.9285537449457526 1.6263000389567315 0.48862655604506905
-1.453468386370865 1.6556252806730953 0.48943331843055315
-1.4274541832771468 1.656019981082806 0.48962407296850186
-1.4451085606307408 1.6699636313827593 0.4976104497326065
-1.4275990655142614 1.659508603835205 0.5021555335874863
-0.8276384441478554 1.732760249079986 0.47942809255673435
-0.8228804454018909 1.7611934535140576 0.491741768593657
1.0691628727860636 -3.562684702403101 0.5108458862288471
1.1578389953794264 -3.5521490686272017 0.5126529768400627
1.166599009139559 -3.5520879524945252 0.512662051350137
1.0383988923473735 -3.51499989057442 0.48836502465614884
1.046570358283444 -3.5263301807231775 0.5103969216651183
1.1156959487707858 -3.527012577462174 0.5146160858592987
1.1498164316739725 -3.5332003212671657 0.5005164243818904
1.172342769979303 -3.537776136784794 0.5062835184687678
1.0361999642864388 -3.5041205530873256 0.5013957329538304
1.1456451579580416 -3.4634861732720585 0.5150394200560743
1.1230373562153857 -3.423517743346431 0.5054291824820258
1.527556832381378 -2.52608403822949 0.49867672254175555
1.71458817753665 -2.1892152429279492 0.5001303807537802
1.6517253395855753 -2.1657305664345685 0.4945610238877113
1.6766348880790662 -2.1771474778405904 0.5017220182307188
1.7080057439058105 -2.173753446685832 0.49872886640804825
1.731256503099037 -2.1618064110719253 0.4961349366675786
1.564350051432722 -2.132046226965762 0.5102915805229141
1.5840952380613331 -2.140881133475575 0.5017079826094367
1.6044861257877225 -2.1471718019872994 0.5020237845697267
1.5354273916467218 -2.113696917824951 0.5063853802646433
1.5414707461276198 -2.121908797839404 0.4936151771761282
1.4420207891407786 -2.0739016211712205 0.503211784206371
1.4637648668090144 -2.081675582542087 0.5077176022387455
1.490199444169852 -2.09244914071662 0.5185651355407104
-2.9775990495012112 -1.559770077171035 0.5241917128781115
-2.943983811269853 -1.5584401190606063 0.5038327237858162
-2.878528302360055 -1.546222688419353 0.503474238963851
1.7793672854816731 -0.8071567775476094 0.4987908832613652
1.696043799371787 -0.6080350175135294 0.5122978848387685
1.7016832389937988 -0.5874954868649488 0.5055717506852992
1.7116053719697732 -0.5758406102211509 0.5105660947762535
1.7242049372790413 -0.5566492901589449 0.5184203139892536
1.6972357477346531 -0.18454293276457157 0.5073972652580208
1.711368416397701 -0.18055452882560763 0.5140145618844432
1.6342017212657383 -0.15635781251162828 0.5125894796924136
1.700683439906072 -0.17387890513894044 0.5118507474688316
1.706020634180823 -0.16991131532067394 0.5189971217230238
1.6408197199862917 -0.13401742344688383 0.5162831642019097
1.654083447325448 -0.1328739329186488 0.5208042431540018
1.609750594913661 0.07004355613515956 0.514277842626555
1.6216274411593723 0.07589260933513153 0.5163781272004184
1.6252369747466193 0.0967053120683532 0.5042256009009061
1.6580097745104005 0.13738864961158703 0.5088381974807056
1.7911813394594187 0.7661990080745162 0.5063641705116719
-3.70084817344703 0.935571268780232 0.511133571941128
-3.6651539531277746 0.9323316652545806 0.5116091491783215
-3.7565384335059395 0.9691173363789021 0.5320650661861179
-3.6759963953452526 0.9486333904926221 0.5074193598755568
-3.7496468511875705 0.995853321492248 0.5066414700830575
-4.433892153667067 1.0281574488634548 0.5332598203081417
-4.39076214153407 1.0030758120090935 0.5126007740201001
-1.5600724379010906 1.3164962851036173 0.5230390964721772
-1.5402499499758109 1.299720046498195 0.5252997373473987
-1.58924156642847 1.35434802134518 0.5297280563160607
-1.6217252119276215 1.373549373815165 0.5330398777526411
-1.8378142495456122 1.509182787519329 0.5339669427860073
-1.860587643300036 1.5731343014175663 0.5333224244899886
-1.931159184036111 1.6372266804829338 0.5279769825557329
-1.9614130635151246 1.6798898567624454 0.5146811220697787
-1.935018996393593 1.6552999915980193 0.510966324016434
-1.9484435126519752 1.683606515872088 0.527413388066972
-1.472132421614366 1.7087551172140973 0.5094363674739283
-1.3910288851070645 1.692064722350074 0.5315019877521046
-1.4148763563025955 1.7381630641679895 0.5265066995849251
-1.4508654014445719 1.7636935718478937 0.530321125022694
-1.4466294725873838 1.7898345061048342 0.5344304159880192
-0.8497877698844016 1.793432234534628 0.5192109278092198
1.0647660408923205 -3.556987621940274 0.5397965488063087
1.1147829077467213 -3.5436994630727643 0.518471257798139
1.1844798801233078 -3.5432122664191024 0.518543401543708
1.038433587167242 -3.5254889730534567 0.5256936448488128
1.0470537422413309 -3.526593887627662 0.5298501719842454
1.0878362840531401 -3.5201368028537336 0.5345697133518513
1.112049875478357 -3.524365536044944 0.521753158399225
1.1601073129328983 -3.51345296288069 0.5193168401631557
1.1809991862454734 -3.523883796669553 0.5218244996956348
1.13993281021322 -3.494885682711887 0.5415273686236769
1.1661369313239311 -3.49151784959722 0.5339203030106965
1.1160555047661647 -3.4743662147254257 0.5363408201666013
1.1498050383465706 -3.4657153666976797 0.523080660146819
1.1654774401727517 -3.4626586661932066 0.5348107465627296
1.1550533799022693 -3.4478271843193546 0.5261634684646084
1.1223636640721815 -3.3898109751539773 0.5260724937532131
1.5673432590072096 -2.1295493047789975 0.5243378588058067
1.5000647213206315 -2.096050499023267 0.5283579215629686
1.6932004956770734 -0.18542388891453587 0.554580160264929
1.6453441439899192 -0.15273124068432975 0.5407960131133003
1.701221236377305 -0.16721971362309862 0.534106579675594
1.7120565924639455 -0.17163276768416358 0.5436885116485376
1.6573049279938086 -0.13426387316972788 0.5439377570784514
1.6704387206403493 -0.1150466021488965 0.5439808953553115
1.6915397769765195 -0.10932578531590287 0.5335916436486946
1.6067841572476016 0.0695595583630717 0.5573323766675654
1.615530432469952 0.07393722607356357 0.5485676020092365
1.6300531052719074 0.09634281001046552 0.5367131316539786
1.6489686009478681 0.12691186762735063 0.5497483850381183
1.6746690519575624 0.15974600684601126 0.5527346500166399
1.8112699517054263 0.7892386153228459 0.544652583464151
1.81538106657053 0.8044709002786903 0.5338148121241878
-3.811716811897507 1.0168180299766123 0.5471767295795112
-3.8689950055718345 1.0389722178808711 0.5626906987754655
-1.58024688445368 1.3378795993965744 0.5373346937052019
-1.6113681489902472 1.3669830526799311 0.5425541385001607
-1.6801030021814496 1.436045295194459 0.5549634594826144
-1.8494087651922664 1.534167573284399 0.5495947593036717
-1.89724474858096 1.61837177370184 0.5407638641398812
-1.8727994567228037 1.6026628696458631 0.561561748178827
-1.897086177574938 1.645824290072566 0.55723622900078
-1.8719311906286527 1.6256260709640606 0.5656143124065836
-1.909534746618254 1.6947572084944358 0.5656104566685975
-1.3716476326828442 1.699398976906678 0.5569187402268022
-0.8207907315081204 1.707757645215408 0.5609591712676594
-1.4064529795467624 1.7203993649376323 0.5481437180123102
-1.393228817142899 1.7206000519760887 0.5482407763093472
-0.8214926345057213 1.7376150550835237 0.5537721080615292
-0.8191221281843711 1.7786927034995033 0.5543883219471629
-0.8364548550822516 1.7990931442249882 0.5389059744532907
-0.8228953867585512 1.7992989769886305 0.539005370652766
-0.38892088776636136 1.787024876602841 0.5640215520723586
-0.3653508566327063 1.7977219628676069 0.5565441404276401
1.0868379473202325 -3.5804317686786282 0.5744625106772495
1.0744453421037299 -3.552813905849174 0.5621982607165922
1.0643246038585912 -3.5381277186399505 0.5713441413887814
1.2028972179620958 -3.515858445476189 0.5659896866790681
1.1188960062906823 -3.49286272884592 0.5522848785144198
1.135689633134769 -3.5039435433390853 0.5551498228843363
1.2035462962914403 -3.503469394561276 0.5552201256069293
1.1733007944750482 -3.476434327699649 0.5507349306473802
1.6746401204448298 -0.40280497661516557 0.5682747070679363
1.6945151983805573 -0.39446055045056094 0.567533596005169
1.71914759314741 -0.396057377689947 0.5822130896010344
1.7162228287146144 -0.3721089184443662 0.5754738914808422
1.6958060863207642 -0.3408434867203032 0.5698244310940137
1.7227742403169668 -0.3440595441969543 0.5771115672930405
1.7506375914718575 -0.3335267332169656 0.5880758376875544
1.6671096771722649 -0.3188737131137893 0.58266651737757
1.6902481936587572 -0.31407512579584873 0.58239696415969
1.7083475454487969 -0.3147444901891323 0.5828067903234097
1.5978018663019302 -0.192675299796915 0.5783366591711552
1.68773413663246 -0.1877703205547263 0.5734161923879267
1.6059688987005898 -0.1757177799807601 0.5845090801588034
1.6261412805600617 -0.16128667981167255 0.5800102891083426
