ply
format ascii 1.0
element vertex 832
property float x
property float y
property float z
end_header
-1.5505018230074115 -0.8392907407582254 0.22494865668321057
-1.4515163292402236 -0.7995800121954301 0.21555462230583186
-2.4355915118378855 -0.5647512537417863 0.21872878994227693
-2.503467245916993 -0.4833934002345992 0.2365629419967557
-2.377757618713221 -0.48370789800676844 0.2277478386992312
-2.2594417999410634 -0.4838322093230784 0.21944944250064144
-1.4808259209232058 0.30866886383540637 0.21604516602910107
-1.5377653342179534 0.33974052703883717 0.21599414143142107
-1.5065739643487357 0.32019671280221307 0.2116499148328544
-1.5617928079199495 0.35496343839653 0.21293441933207577
-1.5476192680061114 0.35209855622901015 0.22188867769681578
-1.5020041040491516 0.35836208930743463 0.21417567741716206
-1.431392985339096 0.35764069792275194 0.20597152964856888
-1.4018464156981103 0.3672446942984693 0.20793773507484942
-1.4391888852332817 0.3954286067229186 0.20629705901762527
-1.4017977229573464 0.3774486265716205 0.20782196836697503
-1.5302577434280866 0.4243963774116251 0.21945902215694033
-1.4945679980554438 0.41746739178463016 0.20616667223879176
-1.5443959972449093 0.43860328687384004 0.2104466056962139
-1.499897744901855 0.4548786725868784 0.2262481915729765
-1.4773860028254007 0.4561262615950108 0.20418934995843732
-1.6143856627308903 0.46450856464475876 0.2164994661620073
-1.5793124017002944 0.4679511449457555 0.21328700551928484
-1.5641001422842271 0.4641232994903701 0.22222660251346096
-1.547050022209554 0.47122425157583825 0.22053680564094258
-1.4668518954819356 0.4632917865447387 0.22289810578903846
-1.4508243968439858 0.4752655151554118 0.22118736615468818
-1.4826539168372308 0.49855092813782975 0.224072762032255
-1.1668916787315975 0.7066553115556219 0.20362771133252627
-1.1794392070757487 1.1204129433253873 0.1874089104214705
-1.2012033243399516 1.1426462539553066 0.20683654603949606
-1.184196029327029 1.1298926898906434 0.2051778794699707
-1.220018415175913 1.1609104892854452 0.19982604692573694
4.3715876643587706 1.1611336694063144 0.1619744843068522
1.4683338822658092 1.3484357811353465 0.17436018165332418
1.498893159630883 1.3450968449388383 0.16880819082869256
1.5259904292190292 1.3525440362482748 0.16974243237964182
0.8303948317387457 1.3754959115940402 0.1977551215935357
0.909019220211431 1.3693763920466406 0.1917838225082422
0.9365301565879871 1.3852549772432625 0.18330233581549
1.451833657711594 1.3819466546957053 0.17845147877879772
1.4710661293502643 1.3729324013604336 0.18003906415099802
1.4863499995750937 1.3666875226135415 0.1740150920824926
1.770293024906075 1.3798207911417883 0.18407014288506357
1.7981156733140087 1.3843057203016063 0.1846883149117669
0.9076669714618879 1.4134249805796237 0.19772759576402266
0.9301931502818701 1.4012507762217197 0.18376541571977487
0.9558993014441324 1.409201248456806 0.17134323799067464
0.9769726039225379 1.4151081996571817 0.17069813438019518
1.4415407855230964 1.3927884789738993 0.19050418164512561
1.4586814340170309 1.395117958832086 0.18636869413791665
1.4890464923176945 1.397510323344431 0.18986478969659776
1.7500293720512876 1.395477521770341 0.19138944268100316
1.7676738116768471 1.389050475208915 0.19057803592319578
1.8230146223083166 1.3955748054056165 0.18885700852499165
1.8682140678348755 1.4058696339031735 0.1929548597503463
1.8826087898076351 1.3995051119527786 0.18273133593160276
1.9267994758001816 1.4074231316557408 0.1797183076676105
1.9385997984116243 1.4049692110919505 0.17127509672028957
0.9617829414890711 1.4260381304624914 0.1760876788447348
0.9811703477172493 1.4350094329919705 0.17435855697311126
1.9228796059405993 1.4251028027063666 0.19008688495603276
0.9842508473915612 1.468121025043164 0.17680931488055207
1.0905474319562258 1.5495568317992623 0.16813183689711456
1.1160148674632808 1.561536529145621 0.16940998712270885
1.1626924920402852 1.5499315830942213 0.16830558141254576
1.0824018534337578 1.567824120877223 0.16999284887557806
1.1083723703290382 1.577652563725462 0.17105101262274525
1.1281507179999037 1.5809863666687396 0.1714305527968748
1.1686825973295696 1.5701620723105614 0.17656514384219335
1.106276927060804 1.6067218110369668 0.1740329188252695
1.1739857614268367 1.6230305092615125 0.18222039443255109
1.0559529891972874 1.6314147859867854 0.17003682740316228
1.0969341881817454 1.6411386168084992 0.17755052403773164
1.1792332750241326 1.700701740461308 0.19052410341579454
1.0523689235992486 1.7432261993692852 0.18795273642341073
-1.9475412474527822 1.827842157427911 0.1960568437877561
1.0144897183728638 1.8140682925732525 0.18797401462789987
-1.9949753002857424 1.8719176902070112 0.19928846721163687
-2.090806813434753 1.9241656840065218 0.19367459018660954
-2.043462486904011 1.9171076977077335 0.2025904376386083
-2.116045265113586 1.9542018296684422 0.19521815733963604
-2.0687293705696357 1.9471455134248297 0.2042397893311866
2.6354222099438536 2.004353148567055 0.153773303812554
2.6774710421729404 1.9934505234511 0.1579178477687679
2.6911133104506058 1.9964413535871932 0.16778533495534317
2.970947007775691 2.0060962148528945 0.15458129705370363
2.650054142988324 2.038906889187976 0.16442429057033106
2.6587991285613097 2.0389521616821114 0.1644453536720076
2.910465692315764 2.0241454887719317 0.16792637398043936
2.939311422298882 2.0248047593074188 0.16883355636629344
2.9548654564404675 2.0235173641189306 0.16660698332367394
3.0011391973151356 2.0204702752134804 0.1556462035651294
0.003421095944834196 2.0711968997197614 0.18650873701640672
0.01367726833994598 2.0541102481967264 0.1850757233583028
2.6699524414335256 2.062878725120069 0.17452498264940047
-0.02996258719591971 2.1065765999309334 0.17253009000605654
-0.015144924850116537 2.0896145927452516 0.17965424436149505
3.3091663032677836 2.1624793050317606 0.1480848118790124
3.3136601719023897 2.162605138002337 0.1577575399702144
3.2967357421775048 2.168720548352098 0.15087130085668995
3.328202210787027 2.1776521802678137 0.16853825465328015
3.351885256104552 2.187511869937886 0.16695919465070277
3.434800059346192 2.186412514393777 0.14477162891998252
3.4706475432925323 2.209437072852932 0.15994338744051992
3.4752034404585075 2.225459471362126 0.14552702149150715
3.675518586476617 2.2494824803334352 0.14508706254103274
3.892602094736593 2.2988575254889367 0.1499307653099177
3.909257925493872 2.3301138384299263 0.16588096101510247
3.915431628334848 2.318738718102022 0.16316084140682355
3.77119566155395 2.3623735963801886 0.16368367233977163
3.837581396893512 2.420489482947983 0.13967059000139942
-0.4332167993172271 -3.556213104629139 0.28114183753967753
-0.40209472158986026 -3.5235631270874324 0.2785058241511855
-0.4019678960040085 -3.4957154461888242 0.2906907007771685
-0.3721309395303287 -3.4670425065600172 0.2953320027651816
2.1210665982504437 -3.4421859904047185 0.27624624863734815
2.2249568456336295 -3.442507565416987 0.2758567009428711
2.425316501495213 -3.4431276110814326 0.2751053099142405
2.595993161526987 -3.443655709940189 0.2744652176788282
-0.21043744708853307 -3.4043016681038165 0.2824986412528449
-0.19573500577610892 -3.404347167028592 0.282443488968714
2.090500473079488 -3.4114224661797574 0.27386954083547305
2.200769021682289 -3.4117639452297497 0.2734560198176767
2.3330913518531013 -3.412173434479484 0.27295976624864704
2.3477939123723663 -3.412218933611001 0.2729046132289081
2.3919012370481108 -3.4123554286918583 0.2727392755714881
2.516872346562711 -3.412742168479205 0.2722705981445239
-0.2119824115671165 -3.378387501174597 0.2941894596202215
2.0606304731834912 -3.381718780532714 0.27157630430320073
2.1334718948233706 -3.381944180258908 0.27130311905685156
2.1626085587569683 -3.3820344830125824 0.27119387024247726
2.1771768905507987 -3.382079516039073 0.27113918454308933
2.2791548573099694 -3.382394979918038 0.2707567478285451
2.308291402036727 -3.38248528246497 0.27064749974977886
2.359280504992389 -3.38264301376446 0.2704563402543851
2.424837820142506 -3.382846016277861 0.27021049918464024
2.446690258033564 -3.3829136849113066 0.27012847269807677
2.475826803152856 -3.3830037490640774 0.2700192212298817
2.5728939042843857 -3.354750233821081 0.2673358234910942
1.843729151787385 -3.352493532490008 0.27007032028943473
1.8777884288975806 -3.3430807365406245 0.26916942511926856
1.9520209277576808 -3.3528287910995838 0.2696641294230833
1.9702988653044475 -3.33860839745718 0.26843591172859055
1.9953377224168853 -3.352962750296861 0.26950174588393805
2.1108489940308477 -3.3533202957586408 0.26906849034558894
2.139726737799299 -3.353409681148138 0.26896023651824313
2.2145957947222588 -3.339364411665013 0.2675197522181463
2.2315798447915585 -3.3251399117707 0.26629633303154576
2.26967694146641 -3.3538117993642227 0.268472911601189
2.446263397911622 -3.329440531728094 0.2793313350394042
2.575008105036048 -3.326202736034462 0.26500839481791033
2.6179368167028634 -3.3263355589432244 0.26484744571222996
1.811339262154524 -3.2963432030174467 0.2656388528236524
2.5773250867684387 -3.2987137617945375 0.26276625320104013
2.5915100449785564 -3.298757665005345 0.26271309207357074
2.626972379965693 -3.2988675438195436 0.2625800721224429
2.648249757135245 -3.298933281028772 0.2625002099093556
1.792014506278794 -3.2687871580272345 0.26347785807789764
3.3667907088090865 -3.275447198786168 0.26437163376620054
3.5073739405912248 -3.274095866096194 0.2570448375981895
1.7729388959998131 -3.2412317750542106 0.2613159252755482
2.664825535584953 -3.243992085033774 0.2579711366621243
2.6787612290147793 -3.2440350884732245 0.2579188513399424
3.500969163845472 -3.2465796665062987 0.25483542104287094
2.6316116432576284 -3.217450584617364 0.2559479231723876
3.3155390516521126 -3.2230778480309383 0.26674574515647154
3.495126258806101 -3.2218784072614133 0.2593909011383531
2.8459366899739713 -3.1996957812818336 0.2795854324428782
3.2980278464425643 -3.1976135006654753 0.26463852265279686
3.489840264440274 -3.1982070945111354 0.263919203716751
3.483541969377975 -3.175169405896647 0.27481486505169433
2.535577430140043 -3.1444329657768035 0.26315196691291715
2.589461030551414 -3.1445996714535904 0.2629499170464414
3.445832310515158 -3.121839516200188 0.25756537510928695
2.515752863401247 -3.070257776596383 0.25688860674517705
3.422097567368221 -3.073062693359044 0.2534895710904649
3.482540300750167 -2.588175604933877 0.24270530826314513
3.5408493938311905 -2.5950786595827244 0.2581698401840242
3.547573396255583 -2.604963222642057 0.2592065492068313
3.838364057562451 -2.5270112484547393 0.24561981406504668
3.831045574123684 -2.4963215011570785 0.246448444323227
3.7637186373806886 -2.390388674857603 0.24515785688864034
1.5664496476922458 -2.3414466093825186 0.263045008305567
3.739447353402153 -2.354744720095769 0.2524475368103433
1.151719480203167 -2.3234128726196257 0.27175400218890927
1.5719339009951363 -2.315848583099941 0.2600728904306905
1.612984894075607 -2.3031681028383546 0.25844312437568523
1.6638241085275651 -2.323848624659257 0.2575804299862007
0.9938634165162651 -2.301252020699236 0.26076494711536363
1.5465357949923488 -2.277347413597011 0.2557407209105187
1.5859765553284428 -2.2860077854269414 0.2565766996017291
1.6224059428133717 -2.2775822538055293 0.25545617797273645
1.6439770579452953 -2.2904564549002 0.25685112195483656
1.6698247853977781 -2.277728909738772 0.25527833694190816
2.283269739017828 -2.2948593897475513 0.2636818748044128
2.292810936302372 -2.294888961028358 0.26364613304517104
2.3882508516398198 -2.297608916020163 0.2725164365153498
1.0552232358472642 -2.251279161130136 0.25475465111724604
1.1674834953496382 -2.265762195847019 0.2648035036830686
1.2193473361874065 -2.262434603906559 0.272998557522421
1.3182769237366898 -2.2638335874117415 0.255120894484331
1.627009703771347 -2.253048731033717 0.25261027128698643
1.6811880739782346 -2.264956474505194 0.25375989873664045
1.692624566762252 -2.2532518316582544 0.2523641942974137
1.856661620118147 -2.253759582615332 0.2517490322658821
2.0089127213038327 -2.2624894531477895 0.26094603497658425
2.0251766884776594 -2.2561286542714805 0.2601192894240315
2.255064075210025 -2.2573743031064795 0.25932099975515166
2.34579315594577 -2.2718040371544532 0.2695015375687024
2.3697999851508724 -2.2472745769882447 0.26636969656505716
3.664456187223066 -2.252472838995839 0.26236872722647886
3.673566819375197 -2.2694985686708486 0.25378444531658134
1.0388690786865193 -2.2227673308061715 0.2515363794514516
1.1587445503030604 -2.234878791141259 0.25243965270334023
1.177503138299531 -2.228286890914926 0.25594709680016803
1.2192085907965107 -2.235469594258573 0.2609723367249661
1.3102819229124676 -2.22752094354687 0.2509694461800053
1.3395982265968154 -2.227611552132064 0.25085949113326284
1.4355835477237984 -2.2161684241907027 0.24914671814872813
1.4593814415027406 -2.2268065370137595 0.2676017635735863
1.5017065036895887 -2.2281134017421027 0.250251545260861
1.52023313395988 -2.2281706467691946 0.25018207714055246
1.7040691440821223 -2.222869564557413 0.24881624367434335
1.7301148823615815 -2.234690380601081 0.2500713915022607
1.767165657949913 -2.2171946584929736 0.24790321801304488
1.8224293327304668 -2.2173658565966874 0.2476959603784365
1.8490021810110013 -2.2291880453844595 0.24894914365614063
1.882807986353572 -2.233206076908444 0.2492732783962906
1.9039448853465817 -2.241098279731373 0.25009594883865244
2.0066415637703194 -2.2179358006670387 0.24700516604758144
2.02508900432292 -2.220333424143491 0.25584434065104833
2.270588885939769 -2.232846792718641 0.256327518141364
2.3659076851875023 -2.2237287465518363 0.26347469374609533
2.393539582573734 -2.2238141073129016 0.26337106117155823
1.2465669848175684 -2.2038433391132566 0.24850270950894515
1.2786196340939786 -2.203942414056858 0.24838250883756158
1.4159881425051153 -2.20436763456829 0.2478673312987682
1.4251460399717506 -2.2043960778560963 0.24783299445671714
1.4617776157225049 -2.2045093741931536 0.24769564040160613
1.4892512936140898 -2.204594465636567 0.2475926265779751
1.6998830126686104 -2.2052462799839017 0.24680266606429768
1.7395576508866912 -2.1994988920703444 0.24597750679375302
1.7623732924643 -2.1995696276731596 0.24589194082993082
1.8097779030685093 -2.20558640852024 0.2463905466794461
1.905935820611187 -2.205883871905206 0.2460299333392547
1.983777912633816 -2.2061249254511988 0.24573800064592516
2.0248872625364474 -2.1968255609828176 0.253037473092477
2.1872297487787957 -2.193355334041652 0.24912580978063398
2.2071831023547643 -2.197745968843198 0.25239640689532455
2.2417924898174695 -2.2010531849980555 0.24409397269975003
2.2616221510697967 -2.1975582293318308 0.25214965088018154
2.343542933576291 -2.195498112734782 0.24303601474192799
2.368461829083724 -2.211969443165322 0.26201026411019196
2.027003673395178 -2.168516591936847 0.24964770960925614
2.1544258449270552 -2.1630341354728007 0.24846791865025136
2.33106181002883 -2.175334350903732 0.24920929104491413
2.092753526818223 -2.145034826329914 0.24657219109952339
2.247323877639034 -2.1526364426000724 0.24684331314596225
2.3274590614994684 -2.1528844938325733 0.2465427871256694
2.348023619495859 -2.1422629795615395 0.24518949415720082
3.5893491230797228 -2.150085217109477 0.24373934844527556
2.0312447969641827 -2.114569942341082 0.2431869744934116
2.094351391050558 -2.1094226593959253 0.24231226152635688
2.2393670975560673 -2.1205566948967145 0.243044535600422
3.497838539745553 -1.9592550517297818 0.2581341591162894
3.707207094234821 -1.9546664712976904 0.24654103837120295
3.737687718113813 -1.9730584017259534 0.2583315414319829
3.5134554284448747 -1.9412917507705336 0.2525691380089837
3.5344569675919946 -1.9407541769834693 0.25527835581578273
3.6832394657777483 -1.9426273232123918 0.23576020649908985
-1.6327434551391267 -0.959724908564044 0.27566854319753903
-1.5309289707298828 -0.9567567312533781 0.27480059133973234
-1.4978089585236074 -0.9558394093145177 0.2711251770017181
-1.5622564145630629 -0.9470583916292862 0.26801321716795773
-1.434725949439229 -0.9440330289678358 0.26401601469029434
-1.41593048970293 -0.9180680878570304 0.2520919092801109
-2.5779239834382164 -0.4752107373094076 0.2707065641614984
-2.544098360510361 -0.4867123420589999 0.26818335801600657
-2.5400934316397494 -0.4717376816142196 0.2533705869613406
-2.54395348470697 -0.4563930663370759 0.26783932717294423
-2.5072197016035815 -0.4531741674451547 0.25072597396537133
-2.753451081051563 -0.414428729705581 0.26858087875057457
-2.6085763381068547 -0.4173455122367318 0.2578570872084782
-2.4782064790381018 -0.434712462589621 0.2624516798969065
-2.6793141362488555 -0.39225906041616093 0.26283293575111494
-2.647390889636778 -0.389111877339672 0.275202868725324
-2.612327611186771 -0.3630591634634576 0.27217057060417355
-2.612216544270754 -0.3398743859663396 0.27190748727805447
-2.577192643023084 -0.3221528335669443 0.268969655728543
-2.5771194857753867 -0.3068470268786058 0.2687958572084432
-1.4375283490981279 0.47682357218912497 0.2295788330145887
-1.5269003320673582 0.5086992736213515 0.23837140486023511
-1.4694187521780526 0.49483960409132133 0.23265636983443722
-1.5903389440196911 0.5453493016717971 0.254832593600549
-1.5523323706359464 0.5418809615219351 0.24065577853453396
-1.5902863366813318 0.5563296509134003 0.2547079772938615
-1.2042010779203196 1.1374709404493786 0.23339618379249366
-1.251538459003467 1.1763353282786984 0.22080087017959155
-1.2297909132820444 1.1613700720605935 0.2362094186902145
-1.2970572102881246 1.1996687511241404 0.2437787845730634
4.441321650584544 1.2014847928511665 0.20204152619066937
0.8291112705664736 1.3814841223465633 0.2038754627778217
0.767598734772909 1.413956732581628 0.21921694478660247
0.8058882522169868 1.4026545795843848 0.21222517988165507
0.828008905865285 1.4071368741413062 0.2129200866111176
1.7744349050519777 1.40705030659111 0.19834663633481547
1.8301031983818632 1.4073395557290589 0.1984806984390557
1.8826181536579782 1.4113767205092893 0.19370112173797294
0.7653570432298975 1.4390879978933124 0.2230053245801622
0.9485085348787017 1.7532301389989455 0.22321426579371084
1.169622492249876 1.7966407116346275 0.20782540349450493
-1.977246317188391 1.8688923820865775 0.22201567316281082
1.0266764010555858 1.8503818843215762 0.2098649383736069
2.453518197829738 1.8570426739298953 0.19494090719125198
-1.998244397837018 1.884913728621814 0.21154252926276126
-1.9537939578436505 1.8913193792287455 0.2197425828725317
1.014440426481832 1.8896418965511184 0.21039433158250156
2.4596331285006614 1.879782801169032 0.20461707818172575
-2.0484779400403044 1.9303957686248778 0.22134633819947072
-1.9980910779464514 1.9170120236425816 0.21117823760257828
1.0133570303955328 1.9016425456139612 0.21917776902135583
-2.0754936747994606 1.9606251431126553 0.2295077342834269
2.969637336895877 2.0035719409199952 0.19182031332563648
0.008842071504550075 2.0450968067240023 0.22513056297226175
0.017586938263229213 2.0451423178190415 0.22515162342011755
2.645375187931162 2.0337022441088153 0.19385806490465193
2.71229785380392 2.0252639955655076 0.18787393742054645
2.757682005987623 2.0277380639850957 0.20431491998064608
2.8818921478114246 2.0312431022193804 0.1984187691909178
2.8944310104335207 2.0369268608929976 0.18923772823885135
2.9770914674782194 2.0348807521784265 0.18109871709655617
2.990137954090856 2.034948655946582 0.18113012572479
-0.002399733409459648 2.0759376505450566 0.22014957535939142
2.649921655670482 2.0488622217889283 0.19795749932567605
2.6581552730844944 2.0555213495550544 0.2026768570394253
2.726269691885606 2.0531894418955967 0.20258693839549025
2.9123336597162437 2.0452476234793586 0.18182270480603813
-0.02490076315492651 2.0945782531408623 0.20941568605560057
-0.01587659829441046 2.0920883161811537 0.20089333220566336
2.6740303707662747 2.0771894580256887 0.18397662413691787
2.6907243774810405 2.087979380985805 0.18489672456515377
-0.03921193563604097 2.1181768234622944 0.21174036854481804
3.398613394746471 2.1872233235506227 0.20274061570508622
3.3434753908256 2.1936954859488695 0.1795244552820214
3.3666563053925325 2.2077430578142576 0.18404970779291305
3.3790254240007505 2.208202434845558 0.19042235770478894
3.499794773009138 2.2161705898077737 0.18462667600587068
3.5328481370318334 2.2404825186358894 0.19023530445703052
3.538122335573874 2.2573122999860082 0.17573546226673203
3.90335652825594 2.304885452740683 0.18101770241870555
3.9321278339903323 2.3500903445184926 0.17932925132589358
3.775548626542794 2.387622770510819 0.18793299976783467
3.8024704515116374 2.4134032188696177 0.18080328650376457
3.841949769949112 2.4437075312441214 0.181090187661193
-0.4331292707655763 -3.564045955335976 0.3109538045525088
-0.40183900835935904 -3.507241795732173 0.3345602035772075
-0.387047486152458 -3.472706182214429 0.31712143670287585
-0.25218105639212274 -3.4769300915628447 0.3311045742636281
-0.35732926306007373 -3.445829727409199 0.32860435589163434
-0.34267627496919717 -3.4113644514985753 0.31143486518257535
-0.22505638611080925 -3.4117284418235343 0.3109937638976766
3.3668505443157715 -3.280806470882763 0.28476993354027813
3.5355743330325247 -3.2813286274535276 0.2841371465512924
3.3118453896496103 -3.2081007174769236 0.30434081267412694
3.509001268643974 -3.2271875167361053 0.27938295983006134
3.311806374222664 -3.20461894063395 0.29108962889430656
3.483599738655597 -3.180345898293462 0.2945178618068546
3.228787522163975 -3.1035478470273015 0.28191915618857755
3.4407555887890817 -3.1075697268428435 0.2939353202726865
3.204034622464502 -3.0723701504604963 0.29757323766231614
3.570852581190512 -2.6344606893662115 0.29697577409659903
3.576521328654124 -2.624123508898287 0.2941076795060348
3.557854093805445 -2.604559698879528 0.2809804370114845
3.869202191230058 -2.515036483211495 0.29510398820795736
1.2046340797471733 -2.460224589583035 0.3071276170485301
1.2148719261734793 -2.4313408871789735 0.30339308601102366
2.496845533942764 -2.4063927777820293 0.29488943980554666
2.424316531639175 -2.365472406755832 0.28995961822954486
2.4833181032335068 -2.36565520427021 0.2897383686558555
2.397065784498884 -2.348982966220288 0.27883156598877284
2.414455025574965 -2.3629431953708107 0.2804857296915965
1.4738979873644316 -2.3112746689523957 0.291458285689819
3.7247389042941803 -2.328686150614555 0.29463949020441094
1.45979136557561 -2.2750500809750274 0.2956167778055709
2.3835249898073494 -2.27431612252933 0.27847706166992825
1.4396984995704964 -2.26676042479919 0.3077089460510424
1.4597512066583542 -2.2714572577433882 0.28194140552858626
2.3910338556983897 -2.2625590516359875 0.276943070095254
1.4396382172205733 -2.235759149734311 0.2947625493376952
3.6007678345877103 -2.15890642243014 0.2815545519482808
3.5935136640869345 -2.144552407705659 0.2896689628022654
3.559506731500271 -2.092037102471413 0.27628185974760755
3.5136749020950804 -2.0062360763216422 0.2669780659371713
3.518142042312771 -2.006060743904757 0.2764396478547148
3.8142333892976596 -2.009241426738945 0.281182159914161
3.5119631463597054 -1.9936558826274144 0.284133455495202
3.760901851057529 -1.9863288007118596 0.28053471094286575
3.5003563225192886 -1.9592058671548471 0.27010281461081287
3.5318179767787417 -1.9495275299323356 0.2624384049938079
3.7236526888839316 -1.9686969225491744 0.26920030407887985
3.741115585529009 -1.9681749115338945 0.2745474922081244
3.757259921975196 -1.9629554376455707 0.28605734692948664
3.515452607687801 -1.9455194697885094 0.26313086195646324
3.543336401418834 -1.9404055597567846 0.2740846917375402
3.549996275163651 -1.9401442152806054 0.2881895329307821
-1.642017383857339 -1.0873245427930922 0.3093713428215414
-1.6237044833078602 -1.06380253596923 0.3069446727820283
-1.5882587608256864 -1.0396500146211571 0.3024780034074036
-1.6580397976712977 -1.0163191070536404 0.30002145043252887
-1.62062587464339 -1.0197237141028714 0.2957678490322194
-1.5867663699864096 -1.023362401524999 0.2970276660403007
-0.33282940938766603 -1.0098747870578646 0.294058635989676
-1.6579595898870088 -0.9994992033925635 0.29983056750812714
-1.689333313814134 -0.9672198195475177 0.2817857108789672
-1.565117480850425 -0.9577558441918738 0.2785950828389285
-2.719491677480394 -0.4109393866550106 0.28108978664949247
-1.1715865555869656 1.116577662495395 0.24689560108661768
-1.1961545783821792 1.1397110060375124 0.24975809417486888
4.411567397905928 1.1821091158415566 0.22113296778080177
4.493989188099572 1.2224292359983588 0.2281127751390512
1.9071801499046064 1.589619523124953 0.24150711170631317
1.9160213283832381 1.6093183475990747 0.24441600206990372
1.9344032704192602 1.6107756027054696 0.23849561034307992
0.8202237597755041 1.6802302091513823 0.24656901563254618
0.959578408146746 1.7936462866707485 0.23520022870271678
0.21320577882513003 1.8384082933519998 0.25391032804897
0.9660850631357905 1.8252482078718242 0.24394488874734677
0.9767704972427751 1.822781345695559 0.2460257814780022
0.9844347783775032 1.8523999660865107 0.2463142612929951
1.0220940479776592 1.8653168796300859 0.24441029011348603
1.1680650480989414 1.8593419011672343 0.22208329572268018
0.1931661743182611 1.871946262132772 0.2511120590268296
0.9992175998373743 1.8923256963122719 0.24779987283180982
1.0188212497789102 1.8777497775069172 0.23759987730362703
1.163513630570695 1.8837524767531681 0.23227087252107947
1.012390335057479 1.9125870500058835 0.2279187382318324
1.1588348107472126 1.9046992361779576 0.22727769466613756
2.436381569450158 1.9444784328017954 0.21888554194302273
2.470702020305454 1.9845568809625047 0.22322885651633467
2.489643991290242 2.0226841402430757 0.23529951996973908
2.557667418064921 2.028436270676179 0.2360617670657948
2.5662707765871433 2.0284808174215083 0.23608246608037164
2.7124165040394166 2.0303816794416862 0.22855557778232122
2.7310969989166454 2.037854108524052 0.22296131315622267
2.7684273304970155 2.0329420740804642 0.21288760028481446
2.7899768215304697 2.038798966299146 0.23228942119559043
2.872867707232758 2.0277487305195945 0.22459337318135347
-0.006555134682324937 2.06330825134096 0.2515309216845165
2.7238641583125642 2.0608474001990498 0.21962446011625408
2.7898946189312452 2.0487616855696302 0.2306765095989428
-0.031155536598361566 2.0919497200268555 0.24497093988309204
2.6916445850466295 2.089934265966346 0.22663750261546142
2.708127587926592 2.1126381089109665 0.22900035365067856
3.4032297796326887 2.1873527089252924 0.21267738952175483
3.399980025816239 2.222849450009374 0.20876030687700492
3.4107127043104324 2.213512665696642 0.2185010141525411
3.4897259620274337 2.1940766248243073 0.2252313583948268
3.5118308561182348 2.2165074170269765 0.2105329707659641
3.397152517182847 2.232407748000909 0.21603508063220678
3.5426192855012655 2.2407561507314337 0.21126678181399947
3.6892908673804286 2.2818677096529045 0.21909139864202323
3.73950788016322 2.326890905986556 0.2216641744114356
3.7495241805070183 2.3458592564582044 0.21198823596441577
3.775424402899068 2.3848498623529695 0.20377995080152345
3.841333731602826 2.4450517733103916 0.2129434359757576
3.8992237653532245 2.507911958940235 0.1979585305850752
-0.48093602019302395 -3.6425791590557615 0.36243129533680996
-0.27977257974475633 -3.5433340636632136 0.35185916679325957
-0.40179608416959267 -3.511083671525589 0.34918352695962473
-0.37193939375633334 -3.4841726413318024 0.36053162621405965
-0.34259265365682623 -3.4188367247731772 0.3398748050089248
0.7933955818675862 -3.3963064450259277 0.34678048884678464
0.7681945607618127 -3.36384115805924 0.32996459868997996
3.3295117602419424 -3.2371639849789946 0.32014394374532
3.5037164521642836 -3.213916496830208 0.32349848538391973
3.360484660888024 -2.979366001244094 0.3232677102355911
3.323873657433566 -2.9168186211866622 0.32212798067564685
2.486732111349055 -2.556293824635271 0.3140918436761523
2.488772411708341 -2.5402358765213635 0.3120308422795423
2.5002993465343466 -2.53223954590784 0.3109609711357172
3.865925738980848 -2.525929347931692 0.3039936383855584
1.1008360675307853 -2.4876574183761138 0.3304286186096092
1.0985100883694803 -2.465982539444664 0.3306912306068682
3.8279261284134467 -2.4665289571215387 0.3196135204330169
1.0940027710344207 -2.423656332834838 0.3311720685430069
3.825742914795697 -2.4561040468019684 0.29953365903195245
1.1147351395764808 -2.407205508949853 0.3194469019207185
1.4127805589357485 -2.285683337712188 0.3368196303268276
1.422206838979742 -2.285712713927568 0.3367842997063431
1.4504052887356056 -2.278614004010405 0.30932754680353114
1.4303649138043741 -2.270304304250503 0.32134295099097504
3.612634621708959 -2.158440576993405 0.3066880002683655
3.5785018429187154 -2.1058683837412375 0.292943883365535
3.5710538829054315 -2.0915836994378765 0.3007379501912421
3.5410135236488847 -2.046432051832711 0.29837153559222335
3.5311222457617264 -2.01427474166317 0.31675932175661403
3.824069306281765 -2.0088553320677027 0.3020140846619844
3.85430060435149 -2.020688903282366 0.3078377638306669
3.5137871662794256 -1.9800333106177401 0.310261559531177
3.746796999677686 -1.9820354296668028 0.29135116358678875
3.77075644456567 -1.981241895159649 0.29449462826508566
3.510045876493913 -1.958974374449045 0.31053322623947105
3.54207882385408 -1.9664643967309898 0.3096693871145722
3.554807280722401 -1.959149236695418 0.306914944299604
3.5062169597971593 -1.9380264456708998 0.31077711766315624
3.5330935728228443 -1.9448269094742334 0.3004933649775936
-1.718306656642558 -1.1449566499806332 0.31904574339743985
-1.6796382007905477 -1.118553763022551 0.31417247498531387
4.166527044412388 0.11353585060152804 0.2762396745548927
-1.5892158868473218 0.53618789105729 0.3161877007209189
-1.5548055038193829 0.543899253911459 0.31161111307400396
-1.1877059115422666 0.7238505570025497 0.3043735239958674
-1.261690265915955 0.74353152516438 0.3021070885700346
-1.2101027174033614 0.7331076464986472 0.2990640455449541
-1.2925135102708005 0.7655180005844385 0.29738051899098394
-1.223192608709151 1.1434158863279462 0.29487305736284897
-1.2061163168045919 1.1372618149028928 0.2855404107935525
4.615607755820397 1.276826790317922 0.2612661950669068
0.6676504213438468 1.6589714316939443 0.2687107621200005
0.6935985155937407 1.6351607465164315 0.26080603452187945
0.6839305860246297 1.6827094738309931 0.2692858608611898
0.7068314798528571 1.664864987626352 0.2633508113808524
0.7934940364241163 1.7039345505138954 0.2564713097843363
1.971283066159497 1.7580002686175484 0.27308436650827916
1.4793623470922839 1.7992459983336577 0.2646811510526102
1.4690220813571364 1.8275280581167688 0.25458518147545284
0.20588691680190307 1.8655651350011417 0.2575637412943861
1.4724171900385217 1.8548069814532735 0.26903866754900535
1.4933773723127541 1.8429572039491036 0.27804898010102547
0.3107929226406605 1.89786117235375 0.2768326780024745
0.3235177227122674 1.8903788008904212 0.28309229358968757
0.9973277350764911 1.8783793894267673 0.2606444461889191
1.0171847723914036 1.8762272772295914 0.2530964989577139
1.4654119329962174 1.886290052022702 0.26615694704685194
1.6192622472894085 1.8861210007973916 0.27733365503172064
0.17846287572328312 1.9284408088632037 0.26224790311561447
0.9981750908966343 1.903290005835532 0.25660854073073447
1.463361626263973 1.899293118536559 0.26426302103864524
0.1676702776533443 1.9491269126748554 0.26877834463288863
0.03845289231965121 1.9754419201702724 0.26440154914695185
0.1623649636182778 1.989347795711748 0.2741986290241089
0.022510039377073188 2.0038502020294695 0.27591761244645363
0.01307172970673931 2.0333997459481377 0.2560090137885077
2.7025922916565137 2.030701556743998 0.2590898942592537
2.721095776943622 2.031734101671515 0.24470290304574654
2.8158734660190508 2.0430372961778533 0.24617318346691958
2.884523897224023 2.035031932656967 0.25334401069817125
-0.008780029800286249 2.054961592658042 0.2586215688205714
0.13978321760253642 2.063200290173835 0.2841294690475233
2.576736468917478 2.0526055580166758 0.24683932881173043
2.7072614995605164 2.0549064378266144 0.2614122430368187
2.826208193063603 2.0465379708890525 0.2578080409082086
2.841775651479966 2.046864919481052 0.2586748049104023
2.5989032236102103 2.087668738161499 0.2590928885429161
2.682943486576245 2.0830735049895703 0.24234744645380385
2.691526696995013 2.0987911500391707 0.2564701614474928
2.569294131976437 2.155269077352851 0.2586211087750662
3.449097230598664 2.151734312145377 0.2516301599931115
2.5754412478690645 2.1790846136286106 0.26136847149368236
3.436542744934111 2.169149658655483 0.2578534903473883
3.484800108477618 2.178043994353217 0.23885167656601314
3.4288851497744357 2.2043836944565403 0.24425644753839426
3.6343150324400764 2.1945044326398575 0.24300231073945616
3.653245713147694 2.2120205238461947 0.2555974105839609
3.4301275603023784 2.2294750721706222 0.23812953048765156
3.437150242896884 2.2296719848779403 0.2532454265856555
3.6564244935760204 2.228201436414715 0.23576874559991906
3.7090281941852226 2.300300041818569 0.2319409093200887
-0.6618346503565593 -3.9788062348570095 0.3962186655417568
-0.5309504400601421 -3.7206905749151895 0.40052032772645985
0.75612431428706 -3.6884686477548785 0.39182724907682925
-0.30799687523021757 -3.651100265717179 0.3921790872806928
-0.4488101939909459 -3.6126349948778183 0.37401842401833435
-0.4483218826476194 -3.583579831114863 0.3855413202469224
-0.2942483967276832 -3.5801405839355205 0.3700573537130403
-0.26437930112885333 -3.555017055088036 0.3960887782264961
-0.5982192180940347 -3.522001692372174 0.39379023690843207
-0.533599675363815 -3.42945353182409 0.3832514438717678
-0.5031001342856423 -3.3996977594932787 0.3798233082125088
3.4002921910664776 -3.322887514234463 0.341997250594912
3.4837346930015887 -3.192425092341658 0.34049178834547866
3.446135858979585 -3.1489908212877378 0.3609058677201322
3.465336130292961 -3.17127168337266 0.35086770496107383
3.4223588149555306 -3.0964282239173424 0.34242010921178007
3.4046546746134148 -3.0762038860551 0.3523832592653918
3.3592963661256334 -2.979177735109154 0.3488324189698279
3.3732282431280467 -2.990627648472362 0.365933731701506
1.204199769112401 -2.646024399827468 0.37221379023848666
1.1932749284654602 -2.6287774365968217 0.3697678809376144
1.2152102239843252 -2.6116323517848583 0.36719873049563506
1.1721338931359835 -2.5792245946062504 0.3626974470688853
1.1826979020752428 -2.595394677903435 0.3649891909354532
1.172430615020821 -2.5658040271594618 0.3707008728668171
1.422812038682965 -2.3938976853384686 0.36249378659840775
1.4260813227850146 -2.3269808795246547 0.3519828328633592
3.579855444601586 -2.1002576276995604 0.3326429354798484
4.021079764479202 -2.1097226874859083 0.33329056466432316
3.9701988772501746 -2.072588669873148 0.33956364995217003
3.549642717674317 -2.0549359928879616 0.32965121692954413
3.5307005528146593 -2.0230149708524947 0.3286944946276895
3.8720297521531695 -2.027808457537481 0.3301582255074785
3.8795158927290228 -2.0275146434498246 0.34601359038962587
3.9164061962835603 -2.026841907644137 0.32121154075286623
3.5248632234237496 -2.0018191576497895 0.32420444317478264
-1.9329167969746017 -1.2507757798586454 0.36873521784283225
-1.9328578712570172 -1.2384343894900494 0.3685951597102242
-1.8856870949091016 -1.233343240535462 0.3512269692880159
-1.8426759258037209 -1.2042172538856377 0.3456380403209469
4.174678752636282 0.11337298985426236 0.30684888155619794
4.200212933248553 0.11608271905675582 0.2951884188630488
-1.6304888736556225 0.5175106914653755 0.342382137848641
-1.5921221897040663 0.5199668477093241 0.32690274892267385
-1.6227721248896236 0.5307663122695475 0.33431870075885356
-1.5920441875366513 0.5363209130302948 0.3267171866248561
-1.5747808810730868 0.5483527119927715 0.3242655748878726
-1.2030311971821985 0.7288514653110587 0.3151546691650712
-1.2783160649330447 0.7485387975739525 0.3177301218325298
-1.2258987044604617 1.1478020990949998 0.3142355889155107
-1.2581169527050864 1.1588188855404304 0.3249191737426036
4.424156275666413 1.1433692981648884 0.3001569781135649
4.479465949726583 1.1717846519299535 0.2959117693386264
4.494707579845128 1.1813187469908577 0.28692344926807145
4.493381192940815 1.2235939249405234 0.285583955264418
4.519959678529185 1.2341591579025413 0.29926555700769925
0.6229531019802317 1.7874213366500027 0.2975668619885513
1.9797098198862035 1.7864323528768242 0.28079529375048945
0.4381344913630343 1.8353081967395604 0.2963460856573084
0.6044552646105263 1.817442893786273 0.31455406936359787
1.5227487822168695 1.8365645612407053 0.28421030695140903
1.9810215256833512 1.8218812014950398 0.2855175912262195
0.37987757734693606 1.8613060977519347 0.3003817739962863
0.4189036638052256 1.8615089193463779 0.30047576113691954
0.45010972935056737 1.862781864268917 0.3042922188678947
1.4883062236984406 1.8604001059485251 0.2806035427707571
1.974313653659895 1.8531233342021587 0.2909640878099518
0.3394096255316552 1.8927273715675963 0.29076246086139484
0.38909913002273655 1.8942668046932354 0.3092660444883677
0.4397919526655206 1.8813775611320438 0.3084642604960368
1.4897318729846927 1.884745813272699 0.28960417461876553
1.524123135981855 1.8901370137744504 0.2922960221583108
1.6707033833222098 1.8908985608057014 0.2926490023266676
1.9542216271587547 1.8834992828311952 0.2775167402922111
1.9804854646388819 1.886423158280855 0.2968154371871899
2.1083513612492335 1.8854276290148497 0.2816857872785118
0.1214903548938111 1.9124679291020856 0.3007506654454947
0.3017071628134089 1.9186531761016081 0.28721063629033267
0.32673937775978956 1.902500004788423 0.2922165222195945
0.3466162895149665 1.9159263958808117 0.3090017282702005
0.3907070169253726 1.9073884343563683 0.3077159321698651
1.511261552860202 1.908654179778435 0.29506912950612035
1.5223302704443098 1.927295617844903 0.29789980930363985
1.663328591888379 1.909444196848628 0.29543534162640606
1.6753035250115238 1.9117844026445452 0.30313686988947286
1.9551833272963073 1.9139226280460995 0.2867713904206532
1.9714211632658554 1.90120627272518 0.2946927939412674
0.0681397074201553 1.936000733972959 0.28937527807515556
0.3623260468156113 1.934637530607837 0.31199756510422555
1.6497637623120074 1.9372496363280354 0.2996087524754242
0.26514118443421864 1.9763299682675437 0.29562483986966875
0.28652948515250176 1.9689745391108469 0.3021814022289069
2.5916776631382366 1.9738706883935988 0.28388632957107635
2.6050397786944677 1.981282467875182 0.2860387796875812
0.0063746536501412265 2.014051792812772 0.2929360713489419
0.021872926126198955 1.9958109306322283 0.29808701889688666
2.6142432572493095 1.9888239786999016 0.2706046919237016
2.6657724137652505 2.0004299261604017 0.2814842898085005
2.692740968274995 2.009874307773059 0.2734977517476018
2.8579401053495372 2.0057498669158846 0.28876589891378435
2.8663425095695603 2.0074586524356275 0.283842915898218
0.008936741637065593 2.0214440636174777 0.28614303130869767
0.2204851417225706 2.0492503316974435 0.30626549883544724
0.2484070154102629 2.0299941441371985 0.31132662891078694
2.635688597275723 2.0302206520309127 0.27606429358564993
2.7703805365329988 2.023161639864037 0.2936318494432386
2.792356409764956 2.023982501606235 0.2931345315914802
2.8185487014743846 2.02869473491036 0.2892669612462034
2.8414265582731346 2.0409297905114454 0.2738591431525258
2.8836736873335456 2.0275468782338253 0.28002215941763225
2.901665296866668 2.0400181700548616 0.2698804199374394
-0.035196800441162246 2.0685137300650873 0.3046664756101311
0.028413391110031938 2.078504703729412 0.3021869378964264
0.054206957007320256 2.055591305471612 0.294962124997278
0.1603275827719688 2.0766876313882636 0.294075985371061
2.667538221043857 2.0659294250324214 0.27276127592195654
2.6946694600108336 2.049793820802149 0.2707598038378244
0.1306657168243759 2.099405314457047 0.2971832727098551
0.13955697890744356 2.09945154303122 0.2972046678204874
2.6914761569236947 2.10258709417709 0.2692556146282341
0.019727595181710633 2.1191421415778513 0.2914759734227697
2.634211966378964 2.1540682718464157 0.2922845346831402
3.447336017468432 2.1551474719495793 0.2748610928507622
3.468597665615123 2.1573079829661266 0.262932612197296
3.4457757529123096 2.169408191020544 0.27772706969768135
2.6023258758845307 2.2178343924480926 0.27893353384581315
3.452470827355528 2.198619120157497 0.2861158635670252
3.633244455901038 2.2150203817677094 0.2691802149380769
2.6120438506228276 2.2370881871661323 0.2943979780131816
3.4509429324020955 2.234909620455782 0.2896587133028408
3.6521670937853985 2.232692148585357 0.2819736869515684
3.680646360195441 2.257266194972846 0.2728357808479225
-0.6058317477320625 -3.9035856286975976 0.40449519313766763
-0.6200266044034273 -3.8726723763678708 0.4328089274204704
-0.6591440742252634 -3.724367037926374 0.416505082671701
-0.5131893136902557 -3.68857232542783 0.41193379371354094
-0.2922385321830572 -3.6551419049920764 0.40731795121742564
-0.47979798065168633 -3.624400950936883 0.4192839806284075
-0.26195403759407565 -3.6250752770726007 0.41846706330174055
-0.5869398141019135 -3.5909832818546676 0.4158734247492571
-0.4482342356275997 -3.5914126837219102 0.41535316732917277
-0.26329358253519364 -3.5919850587152484 0.41465960844002203
-0.17082319601633444 -3.5922712454685546 0.41431288822512896
-0.4482780593105784 -3.58749613906804 0.40044718249584677
-0.26433594078431555 -3.5588955839985625 0.4108510382666252
-0.5815375920060115 -3.494943809341168 0.4047844979726825
-0.5500574510344998 -3.4640897845753247 0.40109984283376815
-0.5188554227373934 -3.4332350471306676 0.39741633430295514
3.4277732394383253 -3.1310902677216563 0.383661667646908
3.4135996504075807 -3.0946205334694357 0.3790096265221955
3.4047291055391327 -3.0828260709983435 0.37758811714491863
3.387210998957539 -3.04215257796216 0.3924395201421666
3.40859652356132 -3.0433049574585223 0.39649375111347124
3.3820105334438226 -3.0152991570543506 0.37697624149685055
1.1716631104485973 -2.6170383433874327 0.3884512515903259
1.1879855306730618 -2.6143184509807305 0.3778454386813564
1.236911337969599 -2.6010665909808313 0.38573602858781997
1.2694332288772072 -2.603919382600261 0.3960891621019037
1.1544311901626905 -2.5819679515235525 0.39311059607062154
1.2043894321611361 -2.598213799335558 0.37538289516568724
1.21521980751447 -2.598247470395442 0.3753422647600996
1.2528837410169404 -2.5849421635997327 0.3832056845545657
1.2793726182334189 -2.57292360895325 0.3961398100933613
1.151087735798668 -2.5684534942463713 0.3811169410995223
1.289549241795312 -2.5581027065469844 0.39866010800231994
1.2995669147140931 -2.541923399511538 0.39601300229246467
1.427540733485822 -2.5585297008701566 0.39814263097926084
1.432335632787089 -2.4969454690468216 0.3882084141850549
3.662540351416581 -2.232464745238207 0.37785583727692135
4.153902151449907 -2.228835167611046 0.36425652989054214
4.185609312006459 -2.235933025846253 0.3761709812791825
3.6236054975409075 -2.1765483550031575 0.3571850698991901
4.158660761502421 -2.177522305100377 0.36384671714774036
4.104433904477089 -2.1463241075100603 0.367819022840273
4.126487360043649 -2.1429749022085027 0.36962083363019294
4.077328448724912 -2.0931788232638766 0.37227120394281144
3.90184082472536 -2.041446583791644 0.36444229447045506
0.2376503483703869 -1.492834073576771 0.37324367879202563
0.23521919277913694 -1.4867454621142644 0.37505632743166095
0.2506155983145011 -1.4657723198954187 0.3777152653193626
4.180144030301957 0.11352604967321345 0.31861199005530594
4.193911686216199 0.11430269681016009 0.3351833572100805
4.213394361332134 0.11602162463721888 0.3379296713907773
-1.616236809670758 0.4916531535173885 0.35089583709218347
-1.6007633345205659 0.4876577833998812 0.3588623327013371
-1.5604087610231512 0.4834141983854834 0.3629478166461287
-1.538372390675652 0.47261400691134836 0.3695894838811228
-1.5048384318509849 0.4755538789959908 0.36438675162360235
-1.6517104658121766 0.5107981203268019 0.3557446549591342
-1.63335632813689 0.5176455492490296 0.353057173825514
-1.6006853325377686 0.5040118482974847 0.3586767406047761
-1.1817628327072927 0.697275787765463 0.37082435280722864
4.362018297228902 1.1074769660432382 0.32314084107281504
4.373146297965238 1.1159850780698264 0.3094776476504024
-1.300268764488319 1.176283061158844 0.35204558778398237
-1.353980347540184 1.2075720755457 0.3515557295285577
-1.3202694910347625 1.1922811668379982 0.35522249684690566
-1.3002227594535232 1.1858749535115558 0.35193674496126387
4.5065493860610975 1.2239627072979735 0.31392761115063983
0.6246936597224054 1.7796492093884893 0.3417024562239127
0.6078576071001964 1.8164184320555328 0.3315685632711616
0.46514215491404964 1.851915713923877 0.3237385698590052
0.4487689833493753 1.885963460722378 0.33315386217078347
2.839458775598956 1.8927142516534656 0.3092631234993705
0.43476116271593546 1.9068183228692521 0.33678376852232017
1.6810100252736877 1.9129892327426505 0.32249561051853376
1.7069782087135281 1.9052958942012548 0.33121521968512924
2.1317856050689636 1.9252010657504257 0.3133008527520219
2.839323895975231 1.9014803499495039 0.3106548358436584
0.414958084821908 1.9494211967510884 0.3293434650120463
1.6798724926757673 1.935016756368469 0.3215281589635122
2.0051401020785695 1.9364830139372786 0.30749010123807763
2.140920040995783 1.9461897394159404 0.32406670442657054
0.31596595514035397 1.9639847637126322 0.3165838753876032
0.3693195049919229 1.978844660241256 0.3341760223856251
2.1615127181159792 1.9785710367281446 0.3167596509656453
0.08423835921238232 1.9971375700988587 0.3367843871680667
0.2754287645153126 2.0117740860439146 0.3163740247335587
2.17360884893699 1.9886172847083863 0.30821045231636407
2.6195123950795116 1.988561831488088 0.3012948070979485
2.6417899093044666 2.0073767334873107 0.3092303270279113
2.674282630970703 2.00713911827587 0.31028439137990826
2.692166345912165 2.01288098934489 0.3152851569147694
2.723032185804989 2.0146395787303666 0.32074318149746595
1.6488420428064992 2.036818072874552 0.31200500929681857
2.653972633937436 2.0350765228629406 0.3237968901519514
2.670988160474381 2.0300860803730973 0.32150284668434936
2.7010148334506736 2.024375881112864 0.32221546080493185
2.7221804292415057 2.024485775045251 0.3222664619144637
2.7618746538502505 2.030790764139121 0.3077336022162688
2.7945419861739165 2.028537347271897 0.29965071426317447
2.8158256043995045 2.0286480040776627 0.299701956921517
2.8754200211995626 2.0289575093938397 0.29984547510310905
-0.023219656288075097 2.0718152263213265 0.33318973110840716
0.025901339805643353 2.0775429550600135 0.33415542483314836
0.2636389452361019 2.0568608691069645 0.33124792021565963
2.7723891028854917 2.05648757761138 0.32730205847990856
-0.05615127282805954 2.1060268725027247 0.3223044541087581
-0.03326444139606699 2.0881941629382483 0.33575296688130507
0.019454715591233462 2.0909703767842722 0.3443085242286119
0.2217390465984177 2.087016517295633 0.32793839525271157
-0.06294551721479058 2.1207394520999987 0.33679096390697427
0.22306806768141274 2.123497395254924 0.3417642338033026
2.6301037820350257 2.15194670199728 0.3045445432811447
2.638437522650819 2.1801026411464033 0.3154291720796407
2.64076343589437 2.2092198969187797 0.3217882684003402
3.4521359724919627 2.20503501043465 0.29430212451768106
3.6101566378803263 2.2122712158324815 0.314526929367618
3.623907330942984 2.218917816484447 0.30382656684833265
2.6501545880529838 2.244559352930917 0.31722816566033823
3.459441773485193 2.2367648941688008 0.3101941174407817
3.6376656700180776 2.2254172381365427 0.2929384142212911
3.6568915751074726 2.2379997832225675 0.29931768106266915
3.67545758267227 2.2495837584952496 0.30563936750547854
2.6479077880756816 2.2660440672315607 0.30697582732398837
2.6715602288985734 2.2802906502401026 0.3088828884335498
3.4525294149231236 2.2653161096919927 0.31028601894964913
3.764706644196221 2.349429450404336 0.3061694721210568
3.79040313239142 2.3878691129379255 0.2994874269656274
-0.8384301819968714 -4.343211822250824 0.4505263672585949
-0.8721611837796461 -4.1639960512972625 0.4661821190065307
-0.822156610518405 -4.1193754668283855 0.46102405065776625
-0.7776370634650427 -4.119513140062972 0.46085712960624514
